# .PCD v0.7 - Point Cloud Data file format
VERSION 0.7
FIELDS x y z intensities
SIZE 4 4 4 4
TYPE F F F F
COUNT 1 1 1 1
WIDTH 905
HEIGHT 1
VIEWPOINT 0 0 0 1 0 0 0
POINTS 905
DATA ascii
-8.704600334 -16.71632195 0.1755400449 0.8932339549 
-6.604524136 -17.92482758 0.1738858372 0.8972343802 
-4.434772968 -18.86001396 0.1720686257 0.9013856053 
-2.247787952 -19.53617859 0.1701435447 0.9055885673 
-0.08680770546 -19.97375488 0.1681597233 0.9097601771 
2.015960455 -20.1950531 0.1669758558 0.9138432741 
4.035407066 -20.22467804 0.1669755131 0.9177902341 
5.952165127 -20.09048843 0.1669760644 0.9215521812 
8.70953846 -17.6729393 1.198559403 0.9346387386 
10.05643845 -17.66253281 1.035921693 0.9361157417 
11.28479195 -17.84865189 0.7195388675 0.9362108707 
12.44234657 -18.38580894 0.1552141905 0.9343176484 
13.77064896 -17.75029182 0.1536792219 0.9369584918 
14.98679733 -17.06058884 0.1522346735 0.9393826127 
16.0958519 -16.32730484 0.150881201 0.9415984154 
17.10328865 -15.55924606 0.1496159285 0.9436154962 
18.01466179 -14.76371098 0.1484364122 0.9454437494 
18.83473587 -13.94469166 0.1488430351 0.9471029043 
19.56866074 -13.10815239 0.1502961516 0.9485984445 
20.22224236 -12.26016808 0.1511439383 0.9499289393 
20.79947472 -11.40261269 0.1524161547 0.9511094689 
21.30579758 -10.53956509 0.1524158865 0.9521377683 
21.87501717 -9.790587425 1.460916428e-05 0.9521387219 
22.25571632 -8.902057648 1.044192868e-05 0.9529124498 
22.57309723 -8.011011124 9.387085811e-06 0.953558147 
22.82959938 -7.118270874 9.968729501e-06 0.954080224 
23.02706718 -6.224504471 9.363642675e-06 0.954482615 
23.16714668 -5.329947948 8.368434465e-06 0.9547678232 
23.25074387 -4.435065746 8.105921552e-06 0.9549381733 
23.27854347 -3.539999008 9.356511327e-06 0.9549947977 
23.25074577 -2.644936085 8.994032214e-06 0.9549381733 
23.16714287 -1.750041842 8.648331459e-06 0.9547678232 
23.02711868 -0.8555457592 8.290097867e-06 0.9544824958 
22.82959747 0.03828191757 8.406270354e-06 0.954080224 
22.57310104 0.9310083389 8.186008927e-06 0.953558147 
22.25570869 1.822061062 8.271256775e-06 0.9529124498 
21.87503433 2.710604191 8.290816368e-06 0.9521386027 
21.42826843 3.595508099 7.186296443e-06 0.9512312412 
20.91210938 4.475308418 7.864676263e-06 0.9501840472 
20.3228035 5.348060608 3.944536729e-06 0.9489898086 
19.65613556 6.211352348 1.454549647e-06 0.9476404786 
18.90743446 7.061941147 5.486659234e-07 0.9461275935 
18.07164955 7.895906448 2.371695018e-07 0.9444414973 
17.14199448 8.700527191 0.005090879742 0.94260782 
16.0957489 9.24611187 0.1516139209 0.9416037202 
14.98678493 9.984689713 0.1498603523 0.9393647909 
13.76978207 10.6801672 0.1482248753 0.9369160533 
12.44022369 11.31811523 0.1487108916 0.9342650175 
10.99419785 11.88780499 0.1500980109 0.9313966036 
9.4284935 12.37643909 0.1513147652 0.9282986522 
8.594704628 10.85095215 1.074394584 0.933486104 
7.025535583 11.04705524 1.096235752 0.9305271506 
4.036307335 13.14392948 0.1673286557 0.9177945256 
2.019804001 13.11022091 0.1692485958 0.9138673544 
-0.08802229166 12.89530087 0.1674257666 0.9097526073 
-0.6572165489 10.98100948 0.8922150731 0.9139085412 
-3.335509777 10.91349506 0.6148251295 0.9066944122 
-6.67159462 10.88946247 0.1495943516 0.8969324827 
-8.77512455 9.675524712 0.1522597373 0.8929339647 
-11.25521564 8.413823128 -1.839473498e-06 0.8871436119 
-13.07186985 6.617129326 -3.521658527e-06 0.8837110996 
-14.61685467 4.563652992 -4.16326975e-06 0.8808022141 
-14.48448563 2.037884235 0.3475788832 0.8834934831 
-16.63607025 -0.1468696594 -3.536802069e-06 0.8770148754 
-17.01396751 -2.684618235 -3.492212954e-06 0.8763077855 
-16.93795204 -5.247905254 -3.433254733e-06 0.8764499426 
-15.81389236 -7.680058479 0.1523235738 0.8796214461 
-14.78059483 -10.00208092 0.1791410446 0.8817515969 
-13.48400211 -12.15736961 0.1791025251 0.8841946125 
-11.88135147 -14.08603287 0.1779734641 0.8872159719 
-10.03613472 -15.75579929 0.1765341759 0.8907064199 
-8.015918732 -17.15005684 0.1750107557 0.8945439458 
-5.886218071 -18.26638985 0.1732954085 0.8986065984 
-3.705327988 -19.11328316 0.1714347005 0.9027853608 
-1.522733092 -19.70740891 0.1694853902 0.906986177 
0.6216754913 -20.07069397 0.1674920917 0.9111319184 
2.69960618 -20.22467804 0.1669763774 0.9151775241 
4.686392307 -20.19692612 0.1669757962 0.9190661907 
6.560480118 -20.02486801 0.1616036296 0.9227098227 
9.16519165 -17.67522049 1.147559404 0.9351680875 
10.49200058 -17.65031433 0.9741249681 0.9365252852 
11.76281166 -17.5987606 0.7610377073 0.9374762177 
12.89785957 -18.18072128 0.1546925753 0.9352224469 
14.18825531 -17.5258503 0.1531871557 0.937790215 
15.36812019 -16.82053566 0.1517731994 0.9401438832 
16.44267654 -16.07475662 0.150450021 0.9422923923 
17.41748047 -15.29679775 0.1492137462 0.944245398 
18.29806709 -14.49348831 0.1480613202 0.9460129142 
19.08864594 -13.66740322 0.1493338048 0.9476199746 
19.79520416 -12.8266058 0.1506448686 0.949059844 
20.42301559 -11.97535419 0.151408717 0.950338006 
20.97603416 -11.11559486 0.1524160057 0.9514679313 
21.58472633 -10.3810091 1.6103495e-05 0.9515489936 
22.00913429 -9.494745255 1.417461226e-05 0.9524111748 
22.3684063 -8.605277061 9.361634511e-06 0.9531416893 
22.66526222 -7.713584423 9.837320249e-06 0.9537457228 
22.90190697 -6.820426464 9.951014363e-06 0.9542275071 
23.0801239 -5.926345825 8.645112757e-06 0.9545904398 
23.20124435 -5.031683445 8.223285477e-06 0.9548372626 
23.2661972 -4.13670826 8.869451449e-06 0.9549696445 
23.27545738 -3.241635799 9.456774023e-06 0.9549884796 
23.22910118 -2.346608162 9.469132237e-06 0.9548940659 
23.12678337 -1.451816082 8.853497093e-06 0.9546855688 
22.96772957 -0.5575091839 8.449826055e-06 0.954361558 
22.75073242 0.3360023499 8.377814083e-06 0.9539197087 
22.47417641 1.228262424 8.118375263e-06 0.9533568621 
22.13597679 2.118560791 8.195405826e-06 0.9526690245 
21.73361397 3.006032467 8.496396731e-06 0.9518513083 
21.26410294 3.889438152 7.402041319e-06 0.9508980513 
20.72400093 4.767132759 6.81965048e-06 0.9498026371 
20.10939407 5.637046814 2.281669595e-06 0.9485576153 
19.41591263 6.496478081 5.537659717e-07 0.94715482 
18.63877296 7.341994286 5.740915867e-07 0.9455853105 
17.77277184 8.169378281 7.985040043e-07 0.9438393116 
16.77841377 8.738705635 0.1499968171 0.942964375 
15.73775673 9.496508598 0.1510179043 0.9408801794 
14.59338474 10.22179317 0.1493006051 0.9385723472 
13.3391819 10.90063286 0.1477101594 0.9360516071 
11.97136307 11.51606274 0.1491892785 0.9333342314 
10.80421543 10.95976257 0.7043599486 0.9351381063 
8.879675865 12.51842213 0.1516756713 0.9272147417 
7.155498981 12.86703396 0.1549965292 0.923833549 
5.323469162 13.0751543 0.1654444039 0.9203053713 
3.374641657 13.15215206 0.1679549813 0.9165040255 
1.327053666 13.05914211 0.1694632471 0.9125187993 
1.037958741 10.8735199 1.080672145 0.9185985327 
-1.524219275 10.98261547 0.8030416965 0.9115714431 
-5.219165802 11.54026699 0.1506402642 0.8997244239 
-7.383172512 10.51555061 0.1506004184 0.8955785632 
-9.452679634 9.210006714 0.1523483247 0.8916444182 
-11.88649178 7.845127106 -1.937087291e-06 0.8859494925 
-13.62048817 5.95964241 -2.419386419e-06 0.8826770782 
-15.05978966 3.828189373 -3.309827207e-06 0.8799699545 
-16.14071655 1.493951797 -2.504455551e-06 0.8779423833 
-16.81177711 -0.9853038788 -3.268678029e-06 0.876685977 
-17.03935242 -3.539985657 -4.440114935e-06 0.8762602806 
-16.8117733 -6.094756126 -3.334815119e-06 0.876685977 
-15.54834461 -8.478197098 0.1521712989 0.8801190257 
-14.38469791 -10.74276352 0.179653421 0.8825005293 
-12.98090267 -12.82741165 0.1787659973 0.8851420283 
-11.28986263 -14.67248058 0.177526474 0.8883334398 
-9.378802299 -16.25158691 0.1760432124 0.8919532299 
-7.315139294 -17.55282784 0.1744583994 0.8958788514 
-5.162304401 -18.57793045 0.1726883948 0.8999916315 
-2.975803137 -19.33842087 0.1707931906 0.9041873217 
-0.802005589 -19.85297012 0.1688237041 0.9083774686 
1.32275486 -20.14440918 0.1669758707 0.9124923944 
3.372966766 -20.23422241 0.1669770926 0.9164936543 
5.325444221 -20.15190506 0.1669766009 0.9203204513 
8.238467216 -17.68187141 1.238077402 0.9339935184 
9.614207268 -17.67128754 1.093532443 0.935661912 
10.92008018 -17.63936996 0.9058129191 0.9368714094 
11.97388935 -18.58348846 0.1557466686 0.9333879948 
13.34060383 -17.96870804 0.1541802585 0.9361027479 
14.59357929 -17.29581451 0.15270558 0.938598156 
15.73774147 -16.57599258 0.1513224095 0.9408824444 
16.77843475 -15.81864262 0.1500282139 0.942964673 
17.72119331 -15.03155613 0.148820892 0.9448546767 
18.5713253 -14.22020245 0.1483354568 0.9465668201 
19.33323097 -13.38852501 0.149805516 0.9481182694 
18.50061226 -9.827476501 2.518939495 0.9644631147 
20.6149559 -11.68885708 0.1524161249 0.9507350326 
21.14478111 -10.82787132 0.1524158567 0.9518105984 
21.73361969 -10.08600426 1.604651879e-05 0.951851368 
22.13594246 -9.198558807 1.201476698e-05 0.9526690841 
22.47418404 -8.308231354 9.367868188e-06 0.9533568621 
22.75074196 -7.415997505 1.008789695e-05 0.9539197087 
22.96772957 -6.522480011 9.371005035e-06 0.954361558 
23.12678719 -5.628162861 8.573599189e-06 0.9546855688 
23.22910118 -4.733391762 8.547953257e-06 0.9548940659 
23.27545738 -3.838340282 9.456774023e-06 0.9549884796 
23.2661953 -2.943279743 8.902519767e-06 0.9549696445 
23.20124435 -2.048307896 8.683874512e-06 0.9548372626 
23.08012009 -1.153644323 9.385599697e-06 0.9545904398 
22.90190697 -0.2595739365 8.108656402e-06 0.9542275071 
22.6652565 0.6336064339 8.30792851e-06 0.9537456632 
22.3684082 1.525278091 8.407387213e-06 0.9531416893 
22.00912094 2.414755821 9.092780601e-06 0.9524111748 
21.58472824 3.301020622 7.072399058e-06 0.951548934 
21.09209061 4.182735443 7.51773041e-06 0.9505490065 
20.5276165 5.0581007 5.267272172e-06 0.9494045973 
19.88721466 5.924852371 1.96342512e-06 0.9481079578 
19.16641808 6.78004837 1.139497499e-06 0.9466506243 
18.36025047 7.620048523 4.257506703e-07 0.9450233579 
17.46341515 8.440260887 8.195837609e-07 0.9432163835 
16.44234276 8.991940498 0.1522202343 0.9423050284 
15.36815834 9.742819786 0.150433138 0.9401339293 
14.1877718 10.45376301 0.1487553269 0.9377561212 
12.89612484 11.11281109 0.1482166797 0.9351707101 
11.67616558 10.89501667 0.5673100352 0.9358577728 
10.36731052 10.96057224 0.779810071 0.9348281622 
8.317470551 12.64884281 0.1520118713 0.9261053801 
6.558000565 12.94911289 0.1595884413 0.9226902723 
4.686148643 13.11757946 0.1666679531 0.9190634489 
2.702176094 13.14123249 0.168594107 0.9151943922 
0.6246016622 12.98693752 0.1692710966 0.9111504555 
-1.545421124 12.64940357 0.1588276327 0.9068651795 
-2.4454813 10.9843235 0.6987302899 0.9090254903 
-5.948426723 11.23017406 0.1500075608 0.8983207345 
-8.084589958 10.11060524 0.1516830921 0.8942466974 
-10.26182365 8.785912514 0.106014207 0.8897776008 
-12.49300289 7.24597168 -3.172230436e-06 0.8848034739 
-14.13642788 5.274693489 -2.771503205e-06 0.8817055225 
-14.42730713 2.845349789 0.2719219923 0.8830690384 
-16.41204071 0.680355072 -3.344378229e-06 0.8774341345 
-16.93795204 -1.832155466 -3.433254733e-06 0.8764499426 
-17.01396942 -4.395381927 -2.998554919e-06 0.8763077259 
-16.63619041 -6.933156967 -3.822562576e-06 0.8770144582 
-15.24469566 -9.26174736 0.1502709091 0.8806762099 
-13.95270348 -11.46198273 0.1794003397 0.8833127022 
-12.44585514 -13.47069645 0.1783875525 0.8861506581 
-10.67389107 -15.22930908 0.1770451516 0.8894985914 
-8.704600334 -16.71632195 0.1755400449 0.8932339549 
-6.60451746 -17.92483139 0.1738871187 0.8972343802 
-4.434741974 -18.86001778 0.1720671654 0.9013856649 
-2.247774601 -19.5361824 0.1701419353 0.9055885673 
-0.08676537871 -19.97376251 0.1681592315 0.9097602963 
2.016027689 -20.19505692 0.1669756621 0.9138434529 
4.035407066 -20.22467804 0.1669755131 0.9177902341 
5.952176094 -20.09049225 0.166977033 0.9215522408 
8.709557533 -17.6729393 1.198558331 0.9346387386 
10.05645084 -17.66252899 1.035918593 0.9361158013 
11.28481293 -17.84865189 0.7195291519 0.9362108707 
12.442379 -18.38578606 0.1552142799 0.934317708 
13.77064896 -17.75029182 0.1536792219 0.9369584918 
14.98679924 -17.06059265 0.152233988 0.9393826127 
16.09586143 -16.32729721 0.1508809775 0.941598475 
17.10329819 -15.55923653 0.1496157646 0.9436155558 
18.01467705 -14.76370049 0.1484364867 0.9454437494 
18.83475876 -13.94466877 0.1488423049 0.9471029043 
19.56866074 -13.10815239 0.1502961516 0.9485984445 
20.22224998 -12.26016426 0.1511439234 0.9499289393 
20.79948807 -11.40260506 0.1524159163 0.9511094689 
21.30581093 -10.53955078 0.1524163634 0.9521377683 
21.87509346 -9.790576935 1.494808475e-05 0.9521386027 
22.25571632 -8.902057648 1.044192868e-05 0.9529124498 
22.57309723 -8.011011124 9.387085811e-06 0.953558147 
22.82959938 -7.118270874 9.968729501e-06 0.954080224 
23.0270977 -6.22446537 8.620783774e-06 0.9544825554 
23.1671505 -5.329936981 8.516057278e-06 0.9547677636 
23.25074577 -4.435043812 8.072853234e-06 0.9549381733 
12.89617825 10.6902256 0.1482802927 0.9365493655 
11.62347031 10.85630989 0.3573058844 0.9355869889 
10.05532932 11.73009491 0.1498232782 0.9310238361 
8.949217796 10.96320152 0.7299870253 0.9330841899 
6.768391609 12.39714718 0.1515770704 0.9246709943 
4.96399498 12.54588795 0.1520545036 0.9211985469 
4.229557037 10.97195053 0.9188923836 0.9252980947 
2.298320293 10.97553062 0.8380991817 0.9209960103 
-0.9602613449 11.99149609 0.1513000429 0.9098725319 
-3.032518864 11.39698315 0.1501426548 0.9059374332 
-5.093040943 10.55985928 0.1502757818 0.9020504951 
-7.092533112 9.465394974 0.1522995681 0.8983079791 
-9.453136444 8.340198517 -2.49302775e-06 0.8928329945 
-11.21238804 6.701090813 -2.848564236e-06 0.889560461 
-12.73567486 4.817312241 -2.982702426e-06 0.8867365718 
-13.96195698 2.719750881 -2.60459592e-06 0.8844699264 
-14.83781433 0.4534106255 -3.730817753e-06 0.8828545213 
-15.32247162 -1.924697518 -3.80550091e-06 0.8819618225 
-15.39246082 -4.348945618 -3.460262633e-06 0.8818330169 
-15.04435635 -6.750012398 -3.844208095e-06 0.8824740052 
-13.74250984 -8.95631218 0.1509184241 0.8859160542 
-12.55362797 -11.04916382 0.1778779626 0.8883036971 
-11.15775681 -12.96588707 0.1769563407 0.8908891082 
-9.51140976 -14.6527462 0.1757219136 0.8939471245 
-7.675607204 -16.08864594 0.1743012667 0.8973690867 
-5.710659504 -17.26545525 0.172771126 0.9010462761 
-3.672682047 -18.18635178 0.1710784584 0.9048752785 
-1.610448718 -18.86298943 0.1692773253 0.9087657928 
0.4352749884 -19.31291389 0.167410627 0.9126411676 
2.43231225 -19.55740738 0.1655222774 0.916439712 
4.356177807 -19.61932755 0.1636420041 0.9201136231 
6.190092564 -19.52079773 0.1622571647 0.923632443 
8.565993309 -17.85213089 0.8742594123 0.9333865047 
9.998709679 -17.65184784 0.8117705584 0.935726285 
11.22362137 -17.8476944 0.4908004105 0.9357791543 
12.45561695 -17.95203781 0.1550487727 0.9357380271 
13.74613571 -17.35185623 0.1535632312 0.9382510185 
14.93044662 -16.69613266 0.1521625668 0.9405629635 
16.01277161 -15.99525928 0.1508473605 0.9426804781 
16.99783134 -15.25796223 0.1496149302 0.9446115494 
17.89054298 -14.49153137 0.1484637558 0.9463647604 
18.6952076 -13.70030022 0.1486800313 0.9479571581 
19.41635513 -12.88982487 0.150073573 0.9493954182 
20.05929375 -12.06622982 0.1510288268 0.9506773353 
20.62775803 -11.23174286 0.1524160355 0.9518162608 
21.12693214 -10.39065933 0.1524159759 0.9528084993 
21.68676186 -9.660102844 1.358485588e-05 0.9527906775 
22.06266403 -8.79193306 1.033926492e-05 0.953538537 
22.37629318 -7.920453548 9.721496099e-06 0.9541628957 
22.62986946 -7.046611309 9.320372556e-06 0.954668045 
22.82522392 -6.17116642 8.633340258e-06 0.9550573826 
22.96376228 -5.294640541 8.313009857e-06 0.9553335905 
23.0464859 -4.4174757 8.882220754e-06 0.9554985762 
23.07399559 -3.539999962 8.545648598e-06 0.9555534124 
23.04648399 -2.662522554 8.915289072e-06 0.9554985762 
22.96376228 -1.785346389 8.313009857e-06 0.9553335905 
22.82522202 -0.908834219 8.20581954e-06 0.9550573826 
22.62986755 -0.03337740898 7.93860454e-06 0.954668045 
22.37629318 0.8404507637 8.306659765e-06 0.9541628957 
22.06267166 1.711930275 8.364632777e-06 0.953538537 
21.68676376 2.580111027 7.777885912e-06 0.9527906775 
21.24591637 3.443714619 7.267739875e-06 0.9519143701 
20.73704529 4.301127911 7.024802926e-06 0.9509038329 
20.15663719 5.150291443 2.65401377e-06 0.9497525692 
19.50078773 5.988574028 1.374381895e-06 0.9484533072 
18.76518631 6.81270504 4.551475854e-07 0.9469982386 
17.94519424 7.61861515 4.996195457e-07 0.9453787804 
17.0358963 8.401298523 9.426050269e-07 0.9435862899 
16.01260376 8.912799835 0.1523973197 0.9426914454 
14.93042946 9.618451118 0.1507855356 0.9405527711 
13.74544525 10.27947712 0.1492343992 0.9382180572 
12.45329285 10.88529682 0.1478313208 0.9356808066 
11.05174446 11.41885471 0.1490486264 0.9329565763 
9.538374901 11.87067795 0.1501786709 0.9300224185 
8.523301125 10.86711025 0.8269712925 0.9329596162 
7.065767765 10.85236454 0.9413063526 0.9309544563 
5.395152092 10.96978951 0.9285686612 0.927621901 
2.410897017 12.50470638 0.1521707475 0.9163034558 
0.4062486589 12.26435471 0.1517976969 0.9124748707 
-1.649313807 11.81880569 0.150970161 0.9085624814 
-3.387622833 10.882761 0.290604353 0.9062572122 
-5.767787933 10.22330952 0.1511855423 0.9007873535 
-7.739146233 9.043796539 0.1523798108 0.8970968723 
-10.06190014 7.82232666 -2.383422043e-06 0.8916991949 
-11.7494688 6.099094391 -2.900542086e-06 0.8885638118 
-13.18026733 4.13989687 -2.480629064e-06 0.8859142065 
-14.29517841 1.980455875 -3.201259915e-06 0.8838549852 
-15.04415894 -0.32995224 -3.466356475e-06 0.8824746609 
-15.39239693 -2.731043816 -3.597280283e-06 0.8818332553 
-15.3224678 -5.155302525 -3.871638e-06 0.8819618821 
-14.26948833 -7.457362175 0.1523673087 0.8849521279 
-13.36393452 -9.670541763 0.1651811153 0.8867148757 
-12.11984825 -11.71175861 0.1776091605 0.8891064525 
-10.63379288 -13.55504513 0.1765760481 0.8918613195 
-8.917541504 -15.15994644 0.1752501428 0.8950526118 
-7.032052994 -16.50975037 0.1738135219 0.8985718489 
-5.036862373 -17.60044479 0.1722224951 0.9023104906 
-2.985754967 -18.43827629 0.1704879999 0.9061694145 
-0.9249457717 -19.03715134 0.1686597019 0.9100626111 
1.107724786 -19.41612625 0.1667826325 0.9139184952 
3.082710981 -19.59718323 0.1648927778 0.9176801443 
4.978041172 -19.603405 0.1630216688 0.9213042259 
6.77848959 -19.45762444 0.161190033 0.9247597456 
9.029605865 -17.85049057 0.8265844584 0.9339432716 
10.43039989 -17.65182686 0.7452737093 0.9360848069 
11.69998741 -17.61008263 0.5304871202 0.936999619 
12.89781475 -17.75886917 0.1545446068 0.9365983605 
14.15251541 -17.13890457 0.153086856 0.9390437007 
15.30233383 -16.46705627 0.1517144889 0.9412900209 
16.35169411 -15.75315189 0.1504266262 0.9433444738 
17.30542183 -15.0053997 0.1492227018 0.9452152848 
18.16844749 -14.23063946 0.1480979323 0.9469112158 
18.94458008 -13.43186092 0.1491619796 0.9484542608 
19.63911057 -12.61653137 0.1504852623 0.9498399496 
20.25699615 -11.7893219 0.1512579471 0.9510713816 
20.801754 -10.95217514 0.152415514 0.9521620274 
21.27833366 -10.10886288 0.1524154544 0.953109622 
21.81912994 -9.371141434 1.275763225e-05 0.9530540109 
22.17400551 -8.501758575 9.0291378e-06 0.9537601471 
22.46739197 -7.629392624 9.111559848e-06 0.9543443322 
22.70138359 -6.75494194 8.992326002e-06 0.9548105597 
22.87766075 -5.879088402 8.839744623e-06 0.9551619291 
22.99750328 -5.002305031 8.41245037e-06 0.9554008842 
23.06177521 -4.124990463 7.998313777e-06 0.9555290341 
23.07094002 -3.247493267 7.903052392e-06 0.9555473328 
23.02506828 -2.370081663 8.531724234e-06 0.9554558396 
22.92382812 -1.493079901 8.317259926e-06 0.9552539587 
22.76647568 -0.6168744564 8.178730241e-06 0.9549403191 
22.55189323 0.258112669 8.4424737e-06 0.9545127153 
22.27851868 1.131264687 8.091006748e-06 0.9539682269 
21.94441032 2.001746655 7.850127076e-06 0.9533032179 
21.54717255 2.868556499 7.974572327e-06 0.9525130987 
21.08401299 3.730307579 7.939164789e-06 0.9515927434 
20.55171585 4.58521843 5.173974387e-06 0.9505360723 
19.94660568 5.43107605 2.568392119e-06 0.9493362904 
19.26466179 6.265055656 6.404859505e-07 0.9479859471 
18.50146866 7.083611488 1.07646315e-06 0.9464770555 
17.65226555 7.882364273 5.752946208e-07 0.9448009729 
16.71207619 8.656011581 8.266302984e-07 0.9429487586 
15.66298771 9.152344704 0.1518892348 0.9420000911 
14.5470829 9.844238281 0.1502542198 0.9397966862 
13.3268013 10.48812675 0.1487488598 0.9373950958 
11.99841404 11.07139874 0.1481968015 0.9347955585 
10.55977345 11.57928848 0.1494452059 0.9320018888 
9.409158707 10.96234798 0.674833715 0.9335792065 
7.346731663 12.31770706 0.1513524204 0.9257861972 
5.576704025 12.51202297 0.1519292742 0.9223765135 
3.706821918 12.56231022 0.1521936506 0.9187854528 
1.749930739 12.44597626 0.1520922184 0.9150396585 
-0.2746801972 12.13975143 0.1515747458 0.9111773968 
-2.340522528 11.62087631 0.1505851746 0.9072499275 
-4.411902428 10.86801624 0.1494393945 0.9033279419 
-6.434100151 9.858063698 0.1521643996 0.8995423317 
-8.711274147 8.769604683 0.03832118586 0.8944834471 
-10.6490984 7.275756836 -2.774870381e-06 0.8906069398 
-12.25811768 5.470790863 -2.825275942e-06 0.8876207471 
-13.58970737 3.440175533 -2.954307547e-06 0.8851574063 
-14.58764553 1.224329472 -4.168564374e-06 0.8833155632 
-15.20620537 -1.123563051 -2.593522822e-06 0.882175982 
-15.41581249 -3.539982796 -2.970405603e-06 0.8817901015 
-15.20619965 -5.956501484 -3.153317948e-06 0.882175982 
-14.02461815 -8.213672638 0.1522223353 0.8854035735 
-12.94748592 -10.3634119 0.1797001213 0.8875862956 
-11.65383053 -12.35112667 0.1773019135 0.8899695277 
-10.08429432 -14.11758804 0.1761649996 0.8928818703 
-8.304841042 -15.63871956 0.1747669429 0.8961945772 
-6.376371384 -16.90197754 0.1733026505 0.8997988701 
-4.356926918 -17.9072628 0.1716571152 0.903587997 
-2.297832727 -18.66361237 0.1698865741 0.9074672461 
-0.2426401228 -19.18685913 0.1680368632 0.9113551974 
1.773751736 -19.49734497 0.1661528051 0.9151853919 
3.724216938 -19.61754227 0.1642666906 0.9189052582 
5.589319229 -19.57061005 0.1624060124 0.9224759936 
8.189199448 -17.65209961 1.015321851 0.9336781502 
9.559348106 -17.65281677 0.8715810776 0.9353042841 
10.85407734 -17.65727425 0.669729948 0.9363617897 
12.00122833 -18.13768959 0.1555643231 0.9348547459 
13.32797623 -17.55863571 0.1540488899 0.9374360442 
14.54723549 -16.92019272 0.1526194811 0.9398142695 
15.66305351 -16.23332405 0.1512767226 0.9419957399 
16.67999458 -15.5072937 0.1500162333 0.9439880848 
17.60292625 -14.74985409 0.1488382071 0.9457995892 
18.43663025 -13.96679211 0.1481838971 0.9474419951 
19.18490601 -13.16165733 0.1496248394 0.9489335418 
18.47901535 -9.849461555 2.373528719 0.9640938044 
20.44594955 -11.51040745 0.1524156481 0.9514551759 
20.96811295 -10.67177486 0.1524164528 0.9524927139 
21.54717827 -9.94852829 1.506410445e-05 0.9525131583 
21.94446182 -9.081745148 1.184306529e-05 0.9533030987 
22.27852821 -8.211231232 9.801089618e-06 0.9539682269 
22.55189514 -7.338102818 9.824241715e-06 0.9545127153 
22.7664814 -6.463118076 8.78694209e-06 0.9549403191 
22.92383003 -5.586895943 8.037362022e-06 0.9552539587 
23.02506828 -4.709918022 8.531724234e-06 0.9554558396 
23.07094002 -3.832485676 7.903052392e-06 0.9555473328 
23.0617733 -2.954996347 8.278210771e-06 0.9555290937 
22.99750519 -2.077685833 8.379382052e-06 0.9554008842 
22.87766075 -1.200899601 7.918565643e-06 0.9551619291 
22.70137787 -0.3250598907 8.384114153e-06 0.9548105597 
22.46738625 0.5494132042 8.042758054e-06 0.9543443322 
22.17400932 1.42176199 8.288650861e-06 0.9537601471 
21.81913948 2.291155815 7.953326531e-06 0.9530539513 
21.40025902 3.156446457 7.384863693e-06 0.9522210956 
20.9144268 4.0161376 7.394434306e-06 0.9512559772 
20.358284 4.868309975 3.467053375e-06 0.9501523972 
19.72803116 5.710559845 1.282854214e-06 0.9489032626 
19.01952553 6.539802551 1.444387635e-06 0.9475010633 
18.22820091 7.352292061 9.954077314e-07 0.9459373951 
17.34922981 8.14333725 6.792382123e-07 0.9442035556 
16.35723877 8.72337532 0.1181553081 0.9431182742 
15.30232143 9.38770771 0.151331529 0.9412871599 
14.15212345 10.06472588 0.1497363597 0.9390184283 
12.89617825 10.6902256 0.1482802927 0.9365493655 
11.62346745 10.85630798 0.3573015928 0.9355869889 
10.05531883 11.73009777 0.1498230547 0.9310238361 
8.949192047 10.96320152 0.7299870253 0.9330841303 
6.768379688 12.39715195 0.151577279 0.9246709943 
4.963953495 12.54588985 0.152054742 0.9211984277 
4.229557037 10.97195053 0.9188923836 0.9252980947 
2.298310757 10.97553062 0.8380967975 0.9209960103 
-0.9602763653 11.99149609 0.1512991488 0.9098724723 
-3.032532454 11.39697456 0.1501433402 0.9059373736 
-5.093080044 10.55983639 0.1502764374 0.9020504355 
-7.092647552 9.465373039 0.1522987336 0.8983076811 
-9.453136444 8.340198517 -2.49302775e-06 0.8928329945 
-11.21240616 6.701077461 -3.01153591e-06 0.8895604014 
-12.73578739 4.817296982 -2.479558589e-06 0.8867362142 
-13.96196938 2.719732761 -3.327362947e-06 0.8844699264 
-14.83783531 0.4533627033 -3.827652108e-06 0.8828544617 
-15.32246113 -1.924756169 -2.589076075e-06 0.8819618821 
-15.39246082 -4.348945618 -3.460262633e-06 0.8818330169 
-15.04435635 -6.750019073 -3.844208095e-06 0.8824740052 
-13.74250412 -8.956353188 0.1509187818 0.8859160542 
-12.55362606 -11.04918194 0.1778783798 0.8883036971 
-11.15773106 -12.96592045 0.1769563705 0.8908891678 
-9.511372566 -14.65278912 0.1757226586 0.8939471841 
-7.675607204 -16.08864594 0.1743012667 0.8973690867 
-5.710643768 -17.26546478 0.1727708578 0.9010462761 
-3.672650337 -18.18635941 0.1710788459 0.9048753977 
-1.610428095 -18.86299324 0.1692767441 0.9087658525 
0.4353157282 -19.3129158 0.1674115509 0.9126412272 
2.432349682 -19.55740356 0.1655220985 0.9164398313 
4.356177807 -19.61932755 0.1636420041 0.9201136231 
6.190109253 -19.52079391 0.1622576863 0.923632443 
8.566007614 -17.85213089 0.8742566109 0.9333865643 
9.998720169 -17.65184784 0.8117676973 0.935726285 
11.22364044 -17.84769058 0.4908002615 0.9357791543 
12.45564747 -17.95201492 0.155049473 0.9357380867 
13.74613571 -17.35185623 0.1535632312 0.9382510185 
14.9304533 -16.69612885 0.152162835 0.9405629635 
16.01278305 -15.99525452 0.150846824 0.9426804781 
16.9978466 -15.25796032 0.1496150941 0.9446115494 
17.89055824 -14.49151707 0.1484638304 0.94636482 
18.69522667 -13.70027828 0.1486800313 0.9479572177 
19.41635513 -12.88982487 0.150073573 0.9493954182 
20.05930138 -12.06622696 0.1510292739 0.9506773353 
20.6277504 -11.23173523 0.1524157077 0.9518163204 
21.12693214 -10.3906498 0.1524159759 0.9528084993 
21.68676567 -9.660084724 1.330495797e-05 0.9527907372 
22.06266403 -8.79193306 1.033926492e-05 0.953538537 
22.37629318 -7.920453548 9.721496099e-06 0.9541628957 
22.62986946 -7.046611309 9.320372556e-06 0.954668045 
22.82522964 -6.171156883 8.073545359e-06 0.9550573826 
22.96376801 -5.294631958 8.000043636e-06 0.9553335905 
23.04648972 -4.41745472 8.60232285e-06 0.9554985762 
12.8964138 10.28405476 0.1493021548 0.9378687739 
11.57149315 10.81236935 0.1480965614 0.9353254437 
10.14249229 11.26011658 0.1487685442 0.9326040149 
8.609305382 11.61508846 0.1496843547 0.9296943545 
6.974178314 11.86122608 0.1503659189 0.9265991449 
5.242819786 11.97989082 0.1507704407 0.9233308434 
4.183773041 10.93569565 0.6652846932 0.9249563813 
1.536302209 11.75334454 0.1505667716 0.9163651466 
-0.4025458097 11.36597061 0.1498603821 0.912738204 
-2.361357927 10.76747417 0.1495016515 0.9090909958 
-4.298167706 9.937170982 0.151767835 0.9055171609 
-6.17912674 8.871081352 0.152397722 0.9020490646 
-8.398197174 7.778386116 -1.990387773e-06 0.8969268203 
-10.03909683 6.201859474 -3.813165677e-06 0.8939255476 
-11.45593166 4.399401665 -4.196397185e-06 0.8913421035 
-12.59379005 2.400412083 -2.455042704e-06 0.8892728686 
-13.40502644 0.2468092442 -2.906640702e-06 0.8878004551 
-13.8533802 -2.008917809 -2.509566912e-06 0.8869877458 
-13.91808891 -4.306722164 -3.999049113e-06 0.886870563 
-13.59619808 -6.583387852 -2.496215984e-06 0.8874537945 
-12.37412548 -8.678124428 0.1515080482 0.8907001615 
-8.681363106 -9.96791935 0.9490121603 0.9029169083 
-9.978320122 -12.50372124 0.1756453663 0.8952344656 
-8.443736076 -14.12326145 0.1745060533 0.8980373144 
-6.727342129 -15.51022434 0.173162967 0.9011821151 
-4.883913994 -16.65562439 0.171740815 0.9045720696 
-2.965173721 -17.56095886 0.1701595783 0.90811342 
-1.016503334 -18.23563194 0.1684690714 0.9117235541 
0.9236760139 -18.69472885 0.1667117923 0.9153317809 
2.824482918 -18.95709801 0.1649242491 0.918880105 
4.662102699 -19.04333687 0.1631380618 0.9223231673 
6.41920805 -18.9745636 0.1613755524 0.9256270528 
8.625333786 -17.57894135 0.7733938098 0.934155941 
9.936377525 -17.65176392 0.5790910721 0.935274601 
11.11080647 -18.03596115 0.1564083695 0.9345049262 
12.46830654 -17.53717232 0.1548920423 0.9370889664 
13.72263527 -16.96988297 0.1534529179 0.9394826889 
14.87631226 -16.34597015 0.1520934999 0.9416894913 
15.93279457 -15.67560387 0.150814414 0.9437147379 
16.89613342 -14.96740341 0.1496138573 0.9455648661 
17.77064133 -14.22859859 0.1484893262 0.9472473264 
18.560215 -13.46385193 0.1485227048 0.9487766027 
19.26878738 -12.67826653 0.1498897821 0.9501607418 
18.69159317 -9.820224762 2.088140726 0.963168025 
20.46101189 -11.06583977 0.1524160504 0.9524958134 
20.95309258 -10.24594879 0.1524156928 0.95345366 
21.50364113 -9.533187866 1.320597403e-05 0.9534181952 
21.8747406 -8.684751511 9.780156688e-06 0.9541413784 
22.18462944 -7.832261086 9.367983694e-06 0.9547453523 
22.43528175 -6.976795197 8.411612725e-06 0.9552342892 
22.62845612 -6.119233131 7.878858014e-06 0.9556112885 
22.76548767 -5.260221004 8.378657185e-06 0.9558787942 
22.84733009 -4.400328159 8.283268471e-06 0.9560385942 
22.87455177 -3.5400002 8.168822205e-06 0.9560917616 
22.847332 -2.679673433 7.542781532e-06 0.9560385942 
22.76548767 -1.819769621 8.378657185e-06 0.9558787942 
22.62845802 -0.960767746 8.059550055e-06 0.9556112289 
22.43528175 -0.103194952 7.951022781e-06 0.9552342296 
22.18462944 0.7522592545 7.986215678e-06 0.9547453523 
21.87479019 1.604752064 8.246021935e-06 0.9541412592 
21.50363922 2.453196526 7.218312476e-06 0.9534181952 
21.0687027 3.296192646 7.558229754e-06 0.9525714517 
20.56707191 4.131975174 4.8846764e-06 0.951595962 
19.99547768 4.958440781 1.912708967e-06 0.9504854679 
19.35029793 5.77272892 6.719335488e-07 0.9492337108 
18.62755966 6.571577072 7.875650567e-07 0.9478333592 
17.8230381 7.350766182 5.001847398e-07 0.9462769032 
16.93226051 8.105190277 6.457015047e-07 0.9445567727 
15.94204903 8.716012001 0.07293462753 0.9431724548 
14.8762989 9.266657829 0.1516755074 0.941686511 
13.72210789 9.895448685 0.1502017975 0.9394584298 
12.46636677 10.46790028 0.1488796771 0.9370422959 
11.10665226 10.97141933 0.1480461359 0.9344373941 
9.642951012 11.38945484 0.1490973085 0.9316552281 
8.07537365 11.71011353 0.1499394625 0.9286827445 
6.40732336 11.91591644 0.1505332887 0.9255280495 
4.645891666 11.98767471 0.1508366764 0.9222061634 
2.802549839 11.90489101 0.1508011371 0.9187400341 
0.8943583965 11.64632797 0.1503801495 0.9151630402 
-1.055264235 11.19117165 0.1495228261 0.9115197659 
-3.010994196 10.51671505 0.1501914114 0.9078902006 
-4.933390141 9.608246803 0.1522713453 0.9043464065 
-7.208044529 8.69506073 -2.98675468e-06 0.8991099596 
-8.966537476 7.279270172 -3.14414342e-06 0.8958861828 
-10.53905773 5.624940872 -1.851282377e-06 0.8930131197 
-11.86875248 3.753045559 -3.327302238e-06 0.8905908465 
-12.90257263 1.697311401 -3.305736982e-06 0.8887121081 
-13.5961628 -0.4966294765 -2.170272637e-06 0.8874539137 
-13.9180975 -2.773278475 -3.866774478e-06 0.8868705034 
-13.85337639 -5.071082115 -2.575704002e-06 0.8869877458 
-12.86389542 -7.254669189 0.1523971707 0.8898155093 
-12.07240486 -9.36819458 0.1511535048 0.8912468553 
-10.87303162 -11.3044796 0.1762445718 0.8936039209 
-9.490421295 -13.06840324 0.1752961874 0.8961247206 
-7.889095306 -14.61211491 0.1740700603 0.8990522623 
-6.124304295 -15.91896915 0.1727095246 0.9022897482 
-4.250312328 -16.98376846 0.1712294072 0.9057400227 
-2.316860199 -17.81082726 0.1696070433 0.9093130231 
-0.3671595156 -18.41173553 0.1678892523 0.9129296541 
1.562959075 -18.80305481 0.166117534 0.916523695 
3.445031881 -19.00436592 0.1643272936 0.9200414419 
5.257440567 -19.03661346 0.1625461429 0.9234412909 
6.984844208 -18.92075729 0.160798192 0.9266930819 
9.079354286 -17.58039856 0.727091372 0.9346926808 
10.36842155 -17.65176392 0.5139282346 0.9356354475 
11.64196014 -17.59731674 0.3095129132 0.9366118908 
12.89778233 -17.35506821 0.154403314 0.9379078746 
14.11822891 -16.76766586 0.1529913992 0.9402388334 
15.23908424 -16.12721634 0.1516578943 0.9423844814 
16.26404953 -15.44336033 0.1504060179 0.9443505406 
17.19729233 -14.72420979 0.1492309123 0.9461439848 
18.04316521 -13.97659111 0.148132354 0.9477722645 
18.80513573 -13.203866 0.1489962935 0.9492548108 
19.48783302 -12.41294765 0.1503151506 0.9505890608 
20.09505081 -11.60746574 0.1524157524 0.9517840743 
20.63249397 -10.79345131 0.1524157077 0.9528294802 
21.10243607 -9.970992088 0.1524146348 0.9537445903 
21.63430405 -9.250898361 1.236043863e-05 0.9536727667 
21.98476601 -8.400981903 9.800285625e-06 0.9543556571 
22.27466583 -7.547388554 9.540232895e-06 0.9549209476 
22.50598907 -6.691135406 7.54412622e-06 0.9553722143 
22.68031883 -5.833027363 8.249617167e-06 0.9557124972 
22.79886436 -4.973660469 8.821893971e-06 0.9559440017 
22.86245918 -4.113565922 7.77497371e-06 0.9560681581 
22.87152672 -3.253204346 8.165136023e-06 0.9560858607 
22.82614136 -2.39296937 8.916465049e-06 0.9559972286 
22.72597885 -1.533308506 9.103170669e-06 0.9558016658 
22.57036018 -0.6747217178 8.700682884e-06 0.9554978609 
22.35819817 0.1822311878 7.6054489e-06 0.955083847 
22.08801842 1.03681469 8.065412658e-06 0.954556942 
21.75800323 1.888076305 7.687314792e-06 0.9539136291 
21.3658905 2.73487854 7.42145312e-06 0.9531499147 
20.9090538 3.575698853 7.222080058e-06 0.9522608519 
20.38448334 4.408646107 4.451876976e-06 0.951241076 
19.7887764 5.231383324 1.557858354e-06 0.950084269 
19.11819458 6.040951729 9.582211078e-07 0.9487837553 
18.36868858 6.83371067 8.615972433e-07 0.947332263 
17.53591728 7.60525322 4.150241182e-07 0.9457221627 
16.61538315 8.350153923 9.746487422e-07 0.9439455867 
15.59109879 8.82182312 0.1524001807 0.9430676699 
14.50264072 9.481846809 0.151169017 0.9409644008 
13.31494617 10.09308815 0.149743557 0.9386740923 
12.02472782 10.64417171 0.1484779119 0.9361945391 
10.63039112 11.12058353 0.148417592 0.9335314035 
9.131859779 11.50798225 0.1494031698 0.9306852818 
7.530258656 11.79239464 0.1501660645 0.9276508689 
5.830042362 11.95571423 0.150668636 0.9244383574 
4.751231194 10.97098351 0.6603617668 0.9259944558 
2.610806704 11.31396008 0.418818444 0.9202585816 
0.2477128357 11.51746178 0.1501451731 0.9139533043 
-1.70924437 10.99237919 0.1491333991 0.9103001952 
-3.657166958 10.24007893 0.1509473622 0.9066979289 
-5.561273575 9.253183365 0.1523395628 0.9031878114 
-7.811393738 8.250390053 -3.275821427e-06 0.8980025053 
-9.514211655 6.753543854 -3.109817499e-06 0.8948845267 
-11.01187038 5.023731232 -3.6330282e-06 0.8921512365 
-12.24864578 3.086217403 -2.552171281e-06 0.8899000287 
-13.17341423 0.9788222313 -3.496276577e-06 0.8882206082 
-13.74586391 -1.249305725 -3.540846365e-06 0.8871825933 
-13.93974113 -3.539990187 -2.964153964e-06 0.8868312836 
-13.74586391 -5.830748558 -3.540846365e-06 0.8871825933 
-12.63716888 -7.972811222 0.1522691846 0.890226841 
-11.64550686 -10.01958466 0.1770670414 0.8922005892 
-10.43984318 -11.91542912 0.1759616733 0.8943930268 
-8.978226662 -13.60848331 0.1749158502 0.8970601559 
-7.316253662 -15.07458305 0.1736087203 0.9001017809 
-5.509183407 -16.30075073 0.1722341925 0.9034209251 
-3.610159397 -17.28541946 0.1707021743 0.9069215655 
-1.666828036 -18.03553772 0.1690431684 0.9105172753 
0.2799404263 -18.56455231 0.1673034579 0.9141330719 
2.196910143 -18.8902626 0.1655213833 0.9177070856 
4.057777882 -19.03285408 0.1637320518 0.921189487 
5.843289852 -19.01343536 0.1619593352 0.9245429039 
8.1559515 -17.58811569 0.8076845407 0.9335047007 
9.496982574 -17.65176964 0.637827456 0.9348540306 
10.80425644 -17.61734009 0.4607721567 0.9360893965 
12.02735519 -17.71168709 0.1553889662 0.9362488389 
13.31588745 -17.16580772 0.1539232731 0.9387058616 
14.50274658 -16.55957031 0.1525378972 0.9409744143 
15.59120083 -15.9036541 0.1512316167 0.9430594444 
16.58511925 -15.20719242 0.150005728 0.9449672103 
17.48873329 -14.47787476 0.148856923 0.9467046857 
18.3063755 -13.72173309 0.1480378062 0.9482812285 
19.04127121 -12.94195747 0.1494493634 0.9497160316 
18.45784378 -9.873552322 2.223433733 0.9637017846 
20.28191376 -11.33720016 0.1524164528 0.9521474242 
20.79648209 -10.52011967 0.1524165124 0.9531487226 
21.36589622 -9.814850807 1.358980626e-05 0.9531499743 
21.75797844 -8.968076706 1.134133254e-05 0.9539137483 
22.08802986 -8.116786957 9.7424263e-06 0.954556942 
22.35826492 -7.262152672 8.997822988e-06 0.9550837874 
22.57036591 -6.405269146 8.387716662e-06 0.9554978609 
22.72598648 -5.546673775 8.970896488e-06 0.9558016658 
22.82614136 -4.687031746 7.534697033e-06 0.9559972286 
22.87152672 -3.826775789 8.165136023e-06 0.9560858607 
22.86245728 -2.966423273 7.808042028e-06 0.9560681581 
22.79886436 -2.106328726 8.821893971e-06 0.9559440017 
22.68031311 -1.246962786 8.562583389e-06 0.9557124972 
22.50598907 -0.3888628483 7.54412622e-06 0.9553722143 
22.27466011 0.4674081802 8.471431101e-06 0.9549208879 
21.98476791 1.320981503 8.59920965e-06 0.9543555975 
21.63432121 2.170909882 7.917516996e-06 0.9536727071 
21.22093964 3.015900612 7.798308616e-06 0.9528677464 
20.74187469 3.85433197 7.112312232e-06 0.9519357681 
20.19399261 4.684171677 2.665410875e-06 0.9508709908 
19.57375908 5.502880096 1.176336127e-06 0.9496670365 
18.87734795 6.307265282 8.347483345e-07 0.9483170509 
18.10057259 7.093496323 8.815219985e-07 0.9468135834 
17.23904991 7.856808662 5.983403071e-07 0.9451488256 
16.28825569 8.591444016 7.024406727e-07 0.9433150291 
15.23904514 9.04637146 0.1521956474 0.9423882365 
14.11794186 9.691578865 0.1506769061 0.9402217269 
12.8964138 10.28405476 0.1493021548 0.9378687739 
11.57143021 10.81237316 0.1480966955 0.9353253841 
10.14248085 11.26012135 0.1487676948 0.9326040149 
8.609287262 11.61508846 0.14968431 0.9296943545 
6.974126816 11.86123371 0.1503658593 0.9265990853 
5.242767811 11.97989273 0.1507705003 0.9233307242 
4.183773041 10.93569565 0.6652846932 0.9249563813 
1.536284447 11.75335407 0.1505666077 0.916365087 
-0.4025529921 11.36596203 0.1498593539 0.912738204 
-2.361374855 10.76746273 0.1495012343 0.9090909362 
-4.298201084 9.937159538 0.1517679393 0.9055171013 
-6.179154396 8.871061325 0.1523972601 0.902049005 
-8.398197174 7.778386116 -1.990387773e-06 0.8969268203 
-10.03909874 6.201853752 -3.319507641e-06 0.8939255476 
-11.45587063 4.39936018 -2.918578048e-06 0.8913423419 
-12.59379959 2.400378704 -2.750289013e-06 0.8892728686 
-13.40503216 0.2467544079 -2.346845577e-06 0.8878004551 
-13.85336876 -2.008966446 -3.629157163e-06 0.8869878054 
-13.91808891 -4.306722164 -3.999049113e-06 0.886870563 
-13.59619808 -6.583408356 -2.496215984e-06 0.8874537945 
-12.37412357 -8.678163528 0.1515075564 0.8907001019 
-8.681364059 -9.967942238 0.949039042 0.9029169083 
-9.978277206 -12.50375366 0.17564556 0.8952345848 
-8.443714142 -14.12330055 0.1745061576 0.8980373144 
-6.727342129 -15.51022434 0.173162967 0.9011821151 
-4.88390398 -16.65562057 0.1717410982 0.9045721292 
-2.965143919 -17.56097031 0.1701595485 0.9081134796 
-1.016474605 -18.23563576 0.16846928 0.9117236137 
0.9237077236 -18.69474411 0.1667121798 0.9153318405 
2.824533224 -18.95709229 0.1649245471 0.9188802242 
4.662102699 -19.04333687 0.1631380618 0.9223231673 
6.419216156 -18.97455978 0.1613763422 0.9256271124 
8.625351906 -17.57893753 0.7733947635 0.934155941 
9.936397552 -17.65176392 0.5790907145 0.935274601 
11.11083317 -18.03595161 0.1564090997 0.9345049858 
12.4683342 -17.53715706 0.1548915505 0.937089026 
13.72263527 -16.96988297 0.1534529179 0.9394826889 
14.87631321 -16.34597015 0.1520932019 0.9416894913 
15.93280792 -15.67560291 0.1508146524 0.9437147379 
16.89614487 -14.96739197 0.1496140808 0.9455649257 
17.77065659 -14.22858143 0.1484896392 0.947247386 
18.56023407 -13.46383476 0.1485222429 0.9487766027 
19.26878738 -12.67826653 0.1498897821 0.9501607418 
18.69159889 -9.820232391 2.088224888 0.9631682038 
20.46101189 -11.06583118 0.152416274 0.9524958134 
20.95309639 -10.2459383 0.1524159908 0.9534537196 
21.50365067 -9.533172607 1.39618096e-05 0.9534181952 
21.8747406 -8.684751511 9.780156688e-06 0.9541413784 
22.18462944 -7.832261086 9.367983694e-06 0.9547453523 
22.43528175 -6.976795197 8.411612725e-06 0.9552342892 
22.62845802 -6.119222641 8.059550055e-06 0.9556112885 
22.76549339 -5.260210514 8.065690963e-06 0.9558787942 
22.84733391 -4.400306225 7.970302249e-06 0.9560385942 
12.8966713 9.894906998 0.1502798647 0.9391254187 
11.61056805 10.39174747 0.1491504312 0.9367046952 
10.22591496 10.81100941 0.1482252926 0.9341074824 
8.744498253 11.13617039 0.1486049294 0.9313462377 
7.169295311 11.35299778 0.149216637 0.9284206033 
5.506342888 11.44482899 0.14955616 0.925339818 
4.150073051 10.88243008 0.4179628789 0.9246837497 
1.963399529 11.17792606 0.1492481828 0.9188031554 
0.1207130849 10.77932835 0.1492414027 0.9154227376 
-1.731395125 10.17710876 0.1509268731 0.9120491147 
-3.562235355 9.360448837 0.1523181796 0.9087245464 
-5.728777885 8.551523209 -2.136004014e-06 0.9037667513 
-7.424872875 7.260066986 -2.645475433e-06 0.9007058144 
-8.959843636 5.742652893 -1.94182121e-06 0.8979445696 
-10.28171062 4.015958786 -3.694517773e-06 0.8955734372 
-11.34105492 2.108008385 -1.812392043e-06 0.8936777115 
-12.09498405 0.05790305138 -3.034761903e-06 0.8923310637 
-12.5112505 -2.085852623 -2.955753644e-06 0.8915883303 
-12.571311 -4.268153191 -3.067424586e-06 0.8914812207 
-12.27249527 -6.431106567 -2.940806326e-06 0.8920142055 
-11.12205696 -8.42359066 0.1520478129 0.8950846791 
-8.681437492 -9.941823006 0.6186781526 0.9026036859 
-8.894050598 -12.0788393 0.1744404286 0.8992329836 
-7.459456444 -13.63512897 0.1733865142 0.9018099904 
-5.850414276 -14.97531319 0.1721069217 0.9047085047 
-4.116792679 -16.08976364 0.1707839966 0.9078422785 
-2.306396723 -16.97862244 0.1693042517 0.9111257195 
-0.4615006149 -17.6493988 0.1677158326 0.9144833684 
1.381656647 -18.11503983 0.1660562605 0.9178497791 
3.193523407 -18.39221573 0.1643620729 0.9211705923 
4.950945377 -18.49952698 0.1626617908 0.924402833 
6.636705875 -18.45629501 0.1609795988 0.9275134802 
8.558847427 -17.5834446 0.5306085348 0.9336591363 
9.749105453 -17.99305534 0.1577401161 0.9332832694 
11.16357899 -17.60755539 0.1562059671 0.935916841 
12.48046112 -17.13989449 0.1547412425 0.938375175 
13.70008278 -16.60326004 0.1533463746 0.9406574368 
14.82423878 -16.00917816 0.152026698 0.9427656531 
15.85572147 -15.3675642 0.150783211 0.9447040558 
16.79795837 -14.68690014 0.1496126056 0.9464779496 
17.65470695 -13.97436714 0.1485164315 0.9480935931 
18.42949677 -13.2348938 0.1483704001 0.9495630264 
19.12570381 -12.47315121 0.1497116089 0.9508958459 
18.64401054 -9.799459457 1.975652933 0.9630177617 
20.29899406 -10.9046402 0.1524158418 0.9531493783 
20.7840271 -10.10521126 0.1524144858 0.9540745616 
21.32541656 -9.409664154 1.255496409e-05 0.9540222883 
21.69180679 -8.580369949 9.697640962e-06 0.9547216892 
21.99786186 -7.746323586 9.235999642e-06 0.9553063512 
22.24557304 -6.908730507 7.808238479e-06 0.9557798505 
22.43655968 -6.068582058 8.450147106e-06 0.9561449885 
22.57207489 -5.226643085 8.553651242e-06 0.9564042687 
22.65302849 -4.383595467 7.89286878e-06 0.9565591216 
22.67995453 -3.539999008 8.132823496e-06 0.95661062 
22.6530304 -2.696403742 7.859799553e-06 0.9565591216 
22.57207489 -1.853346109 8.553651242e-06 0.9564042687 
22.43655586 -1.011420012 8.73004501e-06 0.9561450481 
22.24557114 -0.1712572575 8.088136383e-06 0.9557797909 
21.99786568 0.6663188934 8.034923667e-06 0.9553063512 
21.6918087 1.500374794 8.035975043e-06 0.9547216892 
21.32541847 2.329672813 6.994823252e-06 0.9540222883 
20.89635277 3.152727127 7.127232948e-06 0.9532037973 
20.40190887 3.967671871 4.634859124e-06 0.9522615671 
19.83903885 4.772215843 2.033094688e-06 0.9511899948 
19.20438385 5.563511848 1.155999485e-06 0.9499832392 
18.49430084 6.338105202 7.093916565e-08 0.9486348629 
17.70491982 7.091740608 3.682744136e-07 0.9471381903 
16.83221054 7.819342613 1.441416089e-07 0.9454862475 
15.87215805 8.514771461 8.862043046e-07 0.9436722994 
14.82423592 8.928598404 0.1523941904 0.9427682757 
13.69971657 9.526950836 0.1511307061 0.9406411648 
12.478899 10.06831551 0.1498826295 0.9383382201 
11.15999031 10.54081059 0.1488177627 0.9358584881 
9.742607117 10.93088627 0.1480667591 0.9332037568 
8.229636192 11.22123051 0.1488372236 0.9303891659 
6.624297142 11.39840031 0.1493624896 0.9274100065 
4.934202194 11.44445801 0.1496015787 0.9242817163 
3.171153784 11.34036064 0.1495127529 0.9210273027 
1.352083564 11.06666565 0.149051562 0.9176789522 
-0.4969886243 10.60176277 0.149745822 0.9142957926 
-2.34550786 9.928995132 0.1516080201 0.9109340906 
-4.16166687 9.039255142 0.1523799151 0.9076361656 
-6.308648586 8.146742821 -1.3466057e-06 0.9027193189 
-7.957018852 6.778774261 -2.890467613e-06 0.8997475505 
-9.426562309 5.189165115 -2.60134675e-06 0.8971068263 
-10.66630173 3.398374081 -3.009893362e-06 0.8948847055 
-11.62815762 1.438206196 -3.733421636e-06 0.8931646347 
-12.27250576 -0.6489214897 -3.236052407e-06 0.8920142055 
-12.57135773 -2.811854362 -3.19495598e-06 0.8914811015 
-12.5112505 -4.994147778 -2.955753644e-06 0.8915883303 
-11.96496773 -7.120651245 0.0383864902 0.8928189874 
-10.84590816 -9.081866264 0.1503699124 0.8955680728 
-9.728691101 -10.93067837 0.1749914438 0.8977366686 
-8.438336372 -12.62060642 0.174117744 0.9000509381 
-6.939990044 -14.10654068 0.1729810089 0.9027448297 
-5.283914089 -15.37203217 0.171686098 0.9057314396 
-3.519635916 -16.4108963 0.1703059673 0.9089240432 
-1.693308592 -17.225914 0.1687860787 0.9122402072 
0.1546869874 -17.82663155 0.1671688706 0.9156074524 
1.990347147 -18.2274704 0.1654931456 0.918964088 
3.78635335 -18.44589996 0.1637944281 0.922259748 
5.521525383 -18.50089455 0.162097618 0.9254545569 
7.181291103 -18.41020584 0.1612317413 0.9285261035 
9.002832413 -17.61008453 0.4728468955 0.9340858459 
10.23138714 -17.87456894 0.1572215408 0.9341804385 
11.615242 -17.45256805 0.1599553227 0.9367890358 
12.89774036 -16.96807861 0.1542682499 0.9391553998 
14.08529282 -16.41109467 0.1528981477 0.9413793087 
15.17821217 -15.80013275 0.1516042948 0.9434304237 
16.17953682 -15.14463329 0.1503839344 0.9453133345 
17.09285164 -14.45261288 0.1492390782 0.9470337629 
17.92197418 -13.73083687 0.1481670141 0.9485981464 
18.67003822 -12.98298836 0.1488344818 0.9500233531 
19.34111214 -12.21549702 0.150129348 0.9513086081 
19.93856812 -11.43206596 0.1524160206 0.9524624348 
20.46798134 -10.63917732 0.1524157226 0.953471601 
20.93131828 -9.836871147 0.1524142921 0.9543556571 
21.45435333 -9.133835793 1.230170164e-05 0.9542685151 
21.80042076 -8.302816391 8.950605661e-06 0.954929173 
22.08683205 -7.467467308 9.302324543e-06 0.9554764032 
22.31546783 -6.628918648 8.129116395e-06 0.9559134841 
22.48784447 -5.788099289 8.34398088e-06 0.9562430978 
22.60508919 -4.945719242 8.386436093e-06 0.9564673901 
22.66799164 -4.102420807 8.56681072e-06 0.9565877318 
22.67696381 -3.258774757 7.99449117e-06 0.956604898 
22.63206863 -2.415296078 7.9472984e-06 0.9565190077 
22.53300285 -1.572546244 8.138350495e-06 0.9563294649 
22.37911224 -0.7311346531 8.311598322e-06 0.9560351372 
22.16938019 0.1082646847 8.175681614e-06 0.9556341767 
21.90241623 0.9447975159 7.800757885e-06 0.955123961 
21.5764904 1.777391434 7.992860446e-06 0.9545015097 
21.18948746 2.604798317 7.848069799e-06 0.9537628889 
20.73893929 3.425384521 6.969236892e-06 0.9529037476 
20.22205162 4.237154484 3.021895736e-06 0.9519189596 
