# .PCD v0.7 - Point Cloud Data file format
VERSION 0.7
FIELDS x y z intensities
SIZE 4 4 4 4
TYPE F F F F
COUNT 1 1 1 1
WIDTH 889
HEIGHT 1
VIEWPOINT 0 0 0 1 0 0 0
POINTS 889
DATA ascii
7.657510757 6.243936539 -9.377395713e-07 0.9432108998 
6.60697937 6.021997452 -7.575029599e-07 0.9416548014 
5.557794571 5.694754601 -1.145198098e-06 0.9401033521 
4.524141788 5.257742882 -7.103408279e-07 0.9385772943 
3.522107363 4.708305359 -1.260652652e-06 0.9371004701 
2.568684578 4.046131611 -1.572542828e-06 0.9356970787 
1.682627559 3.273631096 -1.363099614e-06 0.9343949556 
0.8823680282 2.396293163 -1.868064601e-06 0.9332202077 
0.1867967993 1.423196316 -1.86213606e-06 0.9322007895 
-0.3875429034 0.3665060997 -2.04069147e-06 0.9313596487 
-0.8255311847 -0.7582001686 -1.825503887e-06 0.93071872 
-1.115255237 -1.932539701 -2.205611963e-06 0.9302950501 
-1.248651505 -3.136116982 -1.652026981e-06 0.9301000237 
-1.22188139 -4.34701252 -1.810015078e-06 0.930139184 
-1.035736799 -5.543206215 -1.854967877e-06 0.9304113388 
-0.6954855919 -6.703201771 -1.071755378e-06 0.930908978 
0.07904802263 -7.725872517 0.1523243487 0.9328760505 
0.6802332401 -8.738031387 0.1503067911 0.9337468743 
1.418999076 -9.653636932 0.1619189829 0.9348952174 
2.234490871 -10.47899818 0.1627745777 0.936099112 
3.125442743 -11.2009182 0.1620581746 0.9374068975 
4.076228619 -11.81383133 0.1612524688 0.9388043284 
5.069207668 -12.31629276 0.1603797227 0.9402657747 
6.087883949 -12.70930767 0.1595100909 0.941767633 
7.11709547 -12.99616528 0.1585927606 0.9432871938 
8.14362812 -13.18168354 0.1576428711 0.9448050261 
9.156005859 -13.27186966 0.1566736996 0.9463042021 
10.14462757 -13.27351761 0.1556959748 0.9477702975 
11.10165215 -13.19382572 0.154722333 0.9491915107 
12.02083111 -13.04013538 0.1537595093 0.950558424 
12.89735126 -12.81972027 0.1528155506 0.9518635273 
13.72770596 -12.5395565 0.1518959403 0.9531014562 
14.50936508 -12.20628738 0.1510063112 0.9542680979 
15.24070168 -11.82609558 0.1501504481 0.9553608298 
15.92080307 -11.40468216 0.1493308246 0.9563779831 
16.5492897 -10.94724464 0.148548916 0.9573187232 
16.94382095 -9.865003586 0.8214110732 0.9617006779 
17.65168381 -9.941976547 0.1479854733 0.9589756727 
18.12478638 -9.39915657 0.1524002403 0.9597138762 
18.54949188 -8.840183258 0.1524009407 0.9603546858 
18.92512321 -8.264474869 0.1524008363 0.9609218836 
19.3351078 -7.755022049 9.13933718e-07 0.9606820941 
19.62049103 -7.141969681 1.789778594e-06 0.9611130953 
19.85828781 -6.51924324 1.385209885e-06 0.9614723921 
20.04916191 -5.888842583 2.28343356e-06 0.9617608786 
20.19368362 -5.252598763 2.420459623e-06 0.9619793296 
20.29228973 -4.612214088 3.699907438e-06 0.9621284008 
20.34528732 -3.969270706 4.524371434e-06 0.962208569 
20.35284996 -3.325330257 4.657001682e-06 0.9622200131 
20.31501007 -2.68187952 2.82821361e-06 0.9621627927 
20.23163223 -2.040484905 2.981408215e-06 0.9620367289 
20.10246086 -1.402666092 2.317115559e-06 0.9618414044 
19.9270916 -0.7701342106 2.243815743e-06 0.9615763426 
19.70500183 -0.1446585655 1.325593075e-06 0.961240828 
19.43556213 0.4718885422 1.056036695e-06 0.9608337879 
19.1180191 1.077298641 1.137793106e-06 0.9603543878 
18.75157547 1.669242859 4.958362183e-07 0.9598014355 
18.33538628 2.245084763 4.531753461e-07 0.9591737986 
17.8686142 2.801855564 9.0026316e-07 0.9584704041 
17.35047722 3.336236 8.435592349e-07 0.9576901793 
16.78030586 3.844484806 3.157705351e-07 0.9568323493 
16.15759468 4.322476864 7.171430525e-07 0.955896318 
15.48213768 4.765543938 6.054533515e-07 0.9548820853 
14.75414467 5.168554306 1.006491033e-07 0.9537901282 
13.97431087 5.525855064 -1.866369672e-07 0.9526218176 
13.1440134 5.831287384 7.048980137e-07 0.951379478 
12.26547718 6.078210831 -5.466412034e-08 0.9500667453 
11.34188843 6.259586334 -1.530623024e-07 0.9486886263 
10.37769604 6.368052483 -5.979589446e-07 0.9472520351 
9.378725052 6.396091461 -4.528275497e-07 0.9457659721 
8.3524189 6.336229324 -1.010167125e-06 0.9442415833 
7.307976246 6.181322098 -3.159227617e-07 0.9426928759 
6.256445885 5.924864769 -1.028768793e-06 0.9411361814 
5.210767269 5.561462402 -1.865264949e-06 0.9395906925 
4.185754776 5.087163925 -4.690862454e-07 0.9380782247 
3.197904348 4.50005722 -1.34785671e-06 0.9366229177 
2.26493597 3.800672531 -8.317970241e-07 0.9352505207 
1.405464292 2.99247551 -6.822557452e-07 0.9339879751 
0.6381503344 2.082073212 -2.286220706e-06 0.9328622818 
-0.01893827133 1.079544544 -2.143505299e-06 0.9318993688 
-0.5493453741 -0.001694440842 -2.258002951e-06 0.9311228395 
-0.9390674233 -1.145117283 -1.083866209e-06 0.9305526614 
-1.177378058 -2.331568003 -1.630415227e-06 0.9302042127 
12.89732933 -12.58893776 0.152735725 0.9525210857 
13.70756054 -12.32149792 0.1518399864 0.9537128806 
14.47125053 -12.00152397 0.1509725899 0.9548374414 
15.18662739 -11.63499451 0.1501377672 0.9558919668 
15.85262394 -11.22743034 0.1493358761 0.956874609 
16.4687252 -10.78391075 0.148571834 0.9577843547 
16.90786552 -9.886667252 0.6377930641 0.9611520767 
17.55094147 -9.806411743 0.1478575319 0.9593880773 
18.01593018 -9.27715683 0.1524004489 0.9601048827 
18.43366814 -8.731573105 0.1524006128 0.9607266188 
18.80336571 -8.169061661 0.1524008512 0.9612771869 
19.20589638 -7.670973778 9.440823305e-07 0.9610295296 
19.48707581 -7.070922852 1.415696488e-06 0.961448431 
19.72145653 -6.461027622 1.534300054e-06 0.9617976546 
19.90965652 -5.843276024 2.439936907e-06 0.9620782733 
20.05218506 -5.219585419 1.522424327e-06 0.9622907639 
20.14944839 -4.591629505 2.226005108e-06 0.9624358416 
20.20173836 -3.961035728 2.609609282e-06 0.9625138044 
20.20919991 -3.329420805 3.046971642e-06 0.9625249505 
20.17186546 -2.698337317 2.795233968e-06 0.9624692202 
20.08961487 -2.069362164 2.580160526e-06 0.9623466134 
19.96221542 -1.444028139 1.977853344e-06 0.9621565938 
19.78929329 -0.8241131306 1.094139634e-06 0.9618988037 
19.57036972 -0.2113959789 5.95266556e-07 0.9615725279 
19.30485725 0.3921682835 7.536557405e-07 0.9611769915 
18.99210548 0.9844341278 7.203925065e-07 0.9607112408 
18.63137627 1.563029766 3.368864725e-07 0.9601743221 
18.22193527 2.125282288 1.031215561e-06 0.9595652819 
17.76304436 2.66825676 8.927776207e-07 0.9588831663 
17.25404358 3.188657761 2.825945842e-07 0.9581270814 
16.69439125 3.682801247 4.314521789e-07 0.9572964907 
16.08373833 4.146585941 6.989748158e-08 0.9563910365 
15.42205334 4.575469971 3.113476055e-08 0.9554108381 
14.70967579 4.964435577 6.480897241e-07 0.9543566704 
13.94745922 5.307985306 -2.37494433e-08 0.9532300234 
13.1369381 5.600171089 7.45682911e-08 0.9520335197 
12.28044415 5.834605217 9.255098377e-08 0.9507707357 
11.38131046 6.004538536 -8.63816183e-07 0.949446857 
10.44402027 6.102964401 -4.890272862e-07 0.9480687976 
9.474402428 6.122765541 -5.836685091e-07 0.9466452599 
8.479822159 6.0569067 -1.14834711e-06 0.9451873899 
7.469279766 5.898741722 -6.068599419e-07 0.9437083602 
6.453500748 5.642273903 -1.047348405e-06 0.9422239661 
5.445047379 5.282583237 -1.532275064e-06 0.9407526255 
4.458107948 4.816194534 -1.658471547e-06 0.9393149018 
3.50840044 4.241600037 -1.318544037e-06 0.9379335046 
2.612811804 3.559596062 -1.31132515e-06 0.9366326928 
1.788886547 2.773743629 -1.135003458e-06 0.9354375005 
1.054260015 1.890612602 -8.877460687e-07 0.9343731999 
0.4258558154 0.9199705124 -1.412685492e-06 0.9334637523 
-0.08097522706 -0.1253027916 -1.855320534e-06 0.9327308536 
-0.4530878067 -1.229467869 -1.731226575e-06 0.9321931005 
-0.6805230379 -2.374325275 -1.77958168e-06 0.9318646193 
-0.7570460439 -3.539992332 -2.091099304e-06 0.9317541122 
-0.6805151701 -4.705678463 -1.911856089e-06 0.9318646789 
-0.4530787766 -5.850539207 -1.189151362e-06 0.9321931601 
-0.08097522706 -6.954697132 -1.855320534e-06 0.9327308536 
0.7032721639 -7.915083408 0.1522887647 0.9346879721 
1.315607667 -8.868841171 0.149926573 0.935562551 
2.058158636 -9.725027084 0.1630934924 0.9367110133 
2.863872766 -10.49570656 0.1621419191 0.9378762245 
3.740281582 -11.16458607 0.1614263356 0.9391469955 
4.66977644 -11.72841072 0.1606307477 0.9404963851 
5.635889053 -12.18637753 0.1597732157 0.9419008493 
6.623287678 -12.53986645 0.1589217186 0.943338573 
7.618035793 -12.79229546 0.1580261737 0.9447889924 
8.607865334 -12.94844723 0.1571018547 0.9462342858 
9.582267761 -13.01414299 0.1561614722 0.9476590157 
10.53241539 -12.99587345 0.155215919 0.9490502477 
11.45110226 -12.90048599 0.154274404 0.9503971338 
12.33257771 -12.73491287 0.1533444822 0.9516911507 
13.17243671 -12.50601006 0.1524337679 0.9529256225 
13.96740532 -12.2203722 0.1515479684 0.9540953636 
14.71514797 -11.88424015 0.1506902575 0.9551968575 
15.41415024 -11.5034399 0.1498656273 0.956227541 
16.06355095 -11.08334732 0.1490775794 0.9571859837 
16.66297913 -10.62888527 0.1483246833 0.9580713511 
17.21245575 -10.14450264 0.1476122588 0.9588835835 
17.71159744 -9.632656097 0.1489609182 0.9596330523 
18.16056061 -9.097356796 0.1524006128 0.9603200555 
18.56219864 -8.545816422 0.1524004787 0.9609179497 
18.91605377 -7.978256226 0.1524010748 0.9614450336 
19.30486107 -7.472181797 1.148107799e-06 0.9611769319 
19.57036781 -6.868603706 8.420955169e-07 0.9615725279 
19.78929329 -6.255886078 1.094139634e-06 0.9618988037 
19.96221733 -5.635960102 1.821370347e-06 0.9621565938 
20.08961678 -5.010655403 2.333331395e-06 0.9623466134 
20.17186928 -4.381676674 2.268507387e-06 0.9624692202 
20.20919991 -3.750779152 2.800142738e-06 0.9625249505 
20.20173454 -3.118945599 2.305503131e-06 0.9625138044 
20.14944649 -2.488362312 2.382488219e-06 0.9624358416 
20.05218124 -1.860403895 2.386325832e-06 0.9622907639 
19.90965462 -1.236758232 1.765587058e-06 0.9620782733 
19.72145462 -0.618979454 1.01643343e-06 0.9617977142 
19.48707581 -0.00908780098 1.16886747e-06 0.961448431 
19.20589256 0.5910096169 3.028012259e-07 0.96102947 
18.87722397 1.178960323 9.523001836e-07 0.9605401754 
18.50034332 1.752448559 7.945902212e-07 0.9599792957 
18.07449722 2.308582783 6.672568702e-07 0.959346056 
17.59897614 2.844404221 -8.431980802e-08 0.9586393833 
17.07314491 3.356480122 2.230012512e-07 0.9578585029 
16.49651527 3.840987206 3.889016966e-07 0.9570029378 
15.86884022 4.293670654 5.581393339e-07 0.9560725093 
15.19019699 4.709819794 3.908548933e-07 0.955067575 
14.46107674 5.084282875 3.13811114e-07 0.9539890885 
13.68255234 5.411395073 1.48604471e-07 0.9528388381 
12.85640621 5.685064316 -2.002590271e-08 0.9516196847 
11.98527241 5.898760796 1.214423406e-08 0.9503359199 
11.07285595 6.045645714 1.125852123e-08 0.9489931464 
10.1240797 6.118657112 -3.949339202e-07 0.947598815 
9.145236015 6.11066246 -6.275398619e-07 0.9461625218 
8.144244194 6.014755249 -2.939290766e-08 0.9446959496 
7.130689144 5.824444771 -1.104840521e-06 0.943213284 
6.115880013 5.534049988 -6.168062328e-07 0.9417311549 
5.112919807 5.139084816 -1.901972041e-06 0.9402685761 
4.136605263 4.636696815 -6.777983117e-07 0.938847065 
3.203001976 4.026082516 -8.146129176e-07 0.9374896884 
2.329357147 3.308923721 -1.209374432e-06 0.9362213612 
1.533176422 2.489744663 -1.620077569e-06 0.9350668192 
0.8321769238 1.576221466 -1.444585337e-06 0.9340516925 
0.242718488 0.5791101456 -1.527017957e-06 0.9331989288 
-0.2205410153 -0.4876673222 -9.205186871e-07 0.9325290918 
-0.545366168 -1.607524872 -1.184659141e-06 0.9320598245 
-0.7229964137 -2.761598825 -1.870121878e-06 0.9318032861 
-0.7485334873 -3.929593086 -2.327856919e-06 0.9317663908 
-0.621253252 -5.090624809 -1.090131491e-06 0.9319502115 
-0.3446952105 -6.224065781 -1.538111178e-06 0.9323497415 
0.3580203354 -7.23867321 0.1523987204 0.9341887832 
0.894849062 -8.241739273 0.1515371203 0.9349614382 
1.543796778 -9.168338776 0.1491549462 0.9358893037 
2.317425966 -9.993033409 0.1625733376 0.9370845556 
3.149060965 -10.73017693 0.1619132459 0.9382895827 
4.045055866 -11.36428833 0.1611696184 0.939589262 
4.988524914 -11.89279842 0.1603498012 0.9409595728 
5.963376999 -12.3156786 0.1594953835 0.9423775077 
6.954699516 -12.63503265 0.1586271524 0.9438215494 
7.949079514 -12.85477543 0.1577206701 0.9452721477 
8.934850693 -12.9800806 0.1567899138 0.9467121959 
9.902080536 -13.01704788 0.155847311 0.9481270909 
10.842453 -12.97230339 0.1549015343 0.9495045543 
11.74930096 -12.85274601 0.1539627314 0.9508347511 
12.61734676 -12.66531467 0.1530384719 0.9521095753 
13.44254684 -12.41678429 0.1521349996 0.953322947 
14.22198868 -12.11364269 0.1512591392 0.9544702768 
14.95362568 -11.76199341 0.1504125595 0.9555484056 
15.63615608 -11.36752415 0.1495994776 0.9565551281 
16.26891899 -10.93545246 0.1488219798 0.9574892521 
16.85168266 -10.47053719 0.1480831653 0.9583502412 
17.34513283 -9.870664597 0.2772248089 0.959800005 
17.86589432 -9.454738617 0.1524006873 0.9598816633 
18.29979706 -8.915455818 0.1524009258 0.9605273008 
18.6854248 -8.358276367 0.1524009705 0.9611014724 
19.02351761 -7.785965443 0.1524005979 0.9616051912 
19.39858246 -7.272134781 1.300196345e-06 0.9613165855 
19.64848518 -6.665288925 8.111670695e-07 0.9616889358 
19.85202026 -6.049951077 1.667846618e-06 0.9619923234 
20.00972176 -5.428035736 2.648308964e-06 0.9622274637 
20.12203026 -4.801316261 2.760363486e-06 0.9623949528 
20.189291 -4.171442509 2.978216571e-06 0.9624952674 
20.2116909 -3.540103912 3.137644853e-06 0.962528646 
20.18929291 -2.908548594 2.73138744e-06 0.9624952674 
20.12203407 -2.278700113 2.603880375e-06 0.9623949528 
20.00971603 -1.65195334 2.04009666e-06 0.9622274637 
19.85202026 -1.030030251 1.577500711e-06 0.9619923234 
19.648489 -0.4147109985 9.918587693e-07 0.9616889358 
19.39857674 0.192148447 9.388128888e-07 0.9613165855 
19.10164833 0.7884287834 6.420740419e-07 0.9608743191 
18.75699043 1.371839046 7.715133279e-07 0.9603612423 
18.36387062 1.939860821 8.225052852e-07 0.9597763419 
17.92154121 2.489610672 6.122509149e-07 0.9591186643 
17.42930984 3.017921448 7.267637443e-07 0.9583873749 
16.88659096 3.521253586 4.51149333e-07 0.9575816393 
16.29296875 3.995642185 3.146378162e-07 0.9567010999 
15.64827251 4.436691761 1.221277159e-07 0.9557458162 
14.95271873 4.839550018 2.910279591e-07 0.954716146 
14.20698738 5.198875427 2.83898629e-07 0.9536135197 
13.41234875 5.508874893 -6.784053141e-08 0.9524399042 
12.57085705 5.763292313 -4.747378739e-07 0.9511986971 
11.68550491 5.95549202 -6.331961231e-07 0.9498945475 
10.76035213 6.078541756 -1.954010997e-07 0.9485336542 
9.800768852 6.125332832 -5.051780931e-07 0.9471241832 
8.813599586 6.088796616 -3.567136844e-07 0.9456763864 
7.807265282 5.962108612 -9.206082723e-07 0.9442027211 
6.791923523 5.739010811 -9.626596693e-07 0.9427182674 
5.779537201 5.414188385 -1.807975991e-07 0.9412404299 
4.783634186 4.983651161 -6.977825251e-07 0.9397887588 
3.819798231 4.445149899 -9.553180007e-07 0.9383862019 
2.904208183 3.798685074 -1.765575462e-06 0.937055707 
2.054489374 3.046889305 -1.432781573e-06 0.9358226657 
1.28812778 2.195239544 -5.522526862e-07 0.9347118735 
0.6224817038 1.252502441 -1.96197675e-06 0.9337481856 
0.07358811051 0.2304878235 -2.003997452e-06 0.9329543114 
-0.3447051644 -0.8559625149 -1.833357373e-06 0.9323497415 
-0.621252358 -1.989375472 -1.336960509e-06 0.9319502115 
-0.7485244274 -3.150434017 -1.785781706e-06 0.9317664504 
-0.7229885459 -4.318413258 -2.002396513e-06 0.9318033457 
-0.5453603864 -5.472497463 -1.74445438e-06 0.9320598245 
-0.2206361145 -6.592342377 -2.096760454e-06 0.9325287938 
0.5237063169 -7.580665112 0.1523525715 0.9344282746 
1.099095702 -8.559848785 0.1507208496 0.9352529645 
1.789734602 -9.454825401 0.1524798274 0.9362637997 
2.586476564 -10.2499218 0.1623600423 0.9374743104 
3.441418886 -10.95318222 0.16167593 0.938713491 
4.355089664 -11.55224705 0.1609044373 0.9400393367 
5.310763836 -12.04545021 0.1600626558 0.9414280057 
6.292704582 -12.43347263 0.1592113674 0.9428570271 
7.286427975 -12.7191143 0.1583277285 0.9443052411 
8.279151917 -12.90675545 0.1574118584 0.9457541108 
9.259767532 -13.00190067 0.1564764082 0.9471873045 
10.21888542 -13.01087284 0.1555310935 0.9485909343 
11.14876175 -12.94041824 0.1545869112 0.9499536753 
12.04319763 -12.797472 0.1536527723 0.9512661695 
12.89732933 -12.58893776 0.152735725 0.9525210857 
13.70756149 -12.32149792 0.1518405825 0.9537128806 
14.47125626 -12.00152206 0.1509722471 0.9548374414 
15.18663502 -11.63499165 0.1501372457 0.9558919668 
15.85263729 -11.22742844 0.1493364125 0.956874609 
16.46873474 -10.78390121 0.1485720724 0.9577844143 
16.90786552 -9.886667252 0.6377930641 0.9611520767 
17.55094337 -9.806407928 0.1478580534 0.9593880773 
18.0159359 -9.277153015 0.1524005979 0.9601048827 
18.43367195 -8.731570244 0.1524006724 0.9607266188 
18.80337143 -8.169050217 0.1524004191 0.9612771869 
19.20590019 -7.670961857 1.091705371e-06 0.9610295892 
19.48707581 -7.070922852 1.415696488e-06 0.961448431 
19.72146034 -6.461024284 1.714991754e-06 0.9617976546 
19.90965652 -5.843297005 2.439936907e-06 0.9620782137 
20.05218506 -5.219578743 1.522424327e-06 0.9622907639 
20.14945221 -4.591621399 2.069521997e-06 0.9624358416 
20.20173454 -3.961013794 3.226681656e-06 0.9625138044 
20.20919991 -3.329420805 3.046971642e-06 0.9625249505 
20.17186546 -2.698359013 2.795233968e-06 0.9624692798 
20.08961487 -2.069339752 2.580160526e-06 0.9623466134 
19.96221352 -1.444072723 2.134336455e-06 0.9621566534 
19.78928757 -0.8240711689 1.069930931e-06 0.9618987441 
19.57036209 -0.2113950253 1.278476248e-06 0.9615725279 
19.30485725 0.3921682835 7.536557405e-07 0.9611769915 
18.99210358 0.9843940735 1.090636033e-06 0.9607113004 
18.63137436 1.563036442 7.071299706e-07 0.9601743221 
18.22192955 2.125291824 8.835924064e-07 0.9595652819 
17.76303101 2.668272018 4.168397254e-07 0.9588831067 
17.25403214 3.188671589 8.181812063e-07 0.9581270814 
16.69439125 3.682801247 4.314521789e-07 0.9572964907 
16.08373833 4.146587849 6.989748158e-08 0.9563909769 
15.42204857 4.575474739 -1.164883372e-07 0.9554107785 
14.70966434 4.964440346 -1.672380421e-07 0.9543566108 
13.94744587 5.30798912 -2.528583707e-07 0.9532300234 
13.13691902 5.600179672 2.124194509e-07 0.9520334601 
12.28044415 5.834605217 9.255098377e-08 0.9507707357 
11.38130569 6.004543304 -5.199962629e-07 0.949446857 
10.44401646 6.102966309 -2.994755448e-07 0.9480687976 
9.474389076 6.122763634 -9.361919524e-07 0.9466452599 
8.479802132 6.056904793 -6.942463529e-07 0.9451873302 
7.469260216 5.898744583 -2.761736368e-07 0.9437083006 
6.453500748 5.642273903 -1.047348405e-06 0.9422239661 
5.445041656 5.282576561 -9.724798247e-07 0.9407526255 
4.458083153 4.816194534 -1.014818963e-06 0.9393148422 
3.508385658 4.2415905 -1.300823897e-06 0.9379335046 
2.6127913 3.559579849 -7.338098271e-07 0.9366326332 
1.788886547 2.773743629 -1.135003458e-06 0.9354375005 
1.054260015 1.890612602 -8.877460687e-07 0.9343731999 
0.4258558154 0.9199666977 -1.412685492e-06 0.9334637523 
-0.08097916096 -0.1253128052 -1.789183216e-06 0.9327308536 
-0.4530868828 -1.229479313 -1.978055479e-06 0.9321931601 
-0.6805230379 -2.374351501 -1.77958168e-06 0.9318646193 
12.89731026 -12.36449528 0.1526558697 0.9531538486 
13.68794537 -12.10915184 0.1517848819 0.9543016553 
14.43409348 -11.8018856 0.1509396583 0.9553860426 
15.13385677 -11.44846153 0.1501239836 0.9564040303 
15.78602505 -11.05423737 0.1493411958 0.9573535919 
16.38993645 -10.6241436 0.1485933065 0.9582336545 
16.945364 -10.16269398 0.1478830278 0.959043622 
17.45223236 -9.673576355 0.1477324665 0.9597861171 
17.90919876 -9.157531738 0.1524008811 0.9604822993 
18.32002449 -8.625014305 0.1524008363 0.9610856175 
18.68383217 -8.075376511 0.1524005681 0.9616202116 
19.0789814 -7.588405132 7.112608387e-07 0.9613651037 
19.35596466 -7.001105785 5.229551903e-07 0.9617722034 
19.58694267 -6.403761864 7.856276056e-07 0.9621118307 
19.77246857 -5.798492432 7.444301104e-07 0.9623847008 
19.91300774 -5.18709898 1.469778113e-06 0.9625914097 
20.00893593 -4.571370125 1.74511456e-06 0.9627325535 
20.06050873 -3.952959061 2.708243755e-06 0.9628084898 
20.067873 -3.333488226 3.170440777e-06 0.9628193378 
20.03104401 -2.714555025 2.069392167e-06 0.9627650976 
19.94992828 -2.097709656 1.757087944e-06 0.9626457095 
19.82429314 -1.484733105 1.406318461e-06 0.9624609351 
19.65381432 -0.8771162033 1.530339318e-06 0.9622100592 
19.43804169 -0.2770001888 1.558881877e-06 0.9618928432 
19.17645645 0.3138897419 1.133692081e-06 0.9615083337 
18.86846352 0.8932752609 5.029827435e-07 0.9610557556 
18.51341629 1.458809853 2.899531353e-07 0.9605343342 
18.11066055 2.007793903 9.701794852e-07 0.9599432349 
17.65957069 2.537338734 7.711969943e-07 0.9592815638 
17.1595993 3.044155598 1.179480478e-06 0.9585487843 
16.61033058 3.524607658 5.733664921e-07 0.95774436 
16.01155853 3.974668503 2.410990305e-07 0.9568681717 
15.36338234 4.389879227 4.377411642e-07 0.9559206367 
14.66628933 4.765352249 -1.002486343e-07 0.9549026489 
13.92128849 5.095750809 1.239947665e-07 0.9538158774 
13.13003731 5.375317574 -2.516038649e-07 0.9526630044 
12.29498577 5.597913742 -4.804972491e-07 0.9514477849 
11.41955566 5.757080078 -3.509474027e-07 0.9501755238 
10.50827503 5.846138954 -4.821324069e-07 0.9488529563 
9.566947937 5.858358383 -5.897254027e-07 0.9474886656 
8.60284996 5.787130356 -7.795589454e-07 0.9460934401 
7.62480402 5.626251221 -6.159183954e-07 0.9446801543 
6.643218517 5.370196342 -8.230782669e-07 0.9432638288 
5.670489311 5.014487267 -4.492719938e-07 0.9418627024 
4.71949482 4.556126595 -7.803005815e-07 0.9404943585 
3.805951118 3.993906021 -9.682833024e-07 0.9391819835 
2.945694208 3.328876972 -1.721936542e-06 0.9379478097 
2.155335903 2.564689636 -1.299670885e-06 0.9368154407 
1.451485157 1.707841873 -3.531896198e-07 0.9358081222 
0.8499504328 0.7677893639 -2.015199016e-06 0.9349479675 
0.3653530478 -0.24310112 -1.486412543e-06 0.9342557788 
0.009740523063 -1.309813023 -1.330186251e-06 0.933748126 
-0.2075026482 -2.415059805 -1.413924338e-06 0.9334381223 
-0.280587852 -3.539992571 -1.724259164e-06 0.9333338141 
-0.2075068355 -4.664947987 -2.268965773e-06 0.9334381223 
0.009743533097 -5.770198345 -1.149494551e-06 0.933748126 
0.3653618395 -6.836899281 -1.865516083e-06 0.9342558384 
1.119417548 -7.765777588 0.152316168 0.9361463189 
1.706089377 -8.689212799 0.1503468454 0.9369755983 
2.40609026 -9.525444984 0.1562666148 0.9380101562 
3.189435482 -10.26999283 0.1617550254 0.9391635656 
4.03133297 -10.92222404 0.1610701233 0.9403691888 
4.925485611 -11.47389221 0.1603066921 0.9416512251 
5.856238365 -11.92397118 0.1594799906 0.9429873824 
6.80894804 -12.27350712 0.1586445868 0.9443570971 
7.770260811 -12.52546692 0.1577817351 0.9457410574 
8.728310585 -12.68421268 0.156890735 0.9471222162 
9.672881126 -12.75511074 0.1559812129 0.9484856725 
10.59533691 -12.74420643 0.1550655961 0.9498190284 
11.48855114 -12.65793419 0.1541516334 0.9511117339 
12.34680748 -12.50286674 0.1532488912 0.9523553848 
13.16565132 -12.28552055 0.1523630917 0.9535432458 
13.94172192 -12.01220512 0.151500389 0.9546703696 
14.67257595 -11.68893051 0.1506642401 0.955732882 
15.35657597 -11.32133389 0.1498592645 0.95672822 
15.99271202 -10.91462326 0.1490880102 0.9576547146 
16.58047295 -10.47359657 0.1483519673 0.9585114717 
17.08137131 -9.885601044 0.2898467481 0.9600201249 
17.60991859 -9.503873825 0.1493566036 0.9600263834 
18.05140495 -8.982108116 0.1524001956 0.9606910944 
18.44648552 -8.443565369 0.1524007171 0.9612714052 
18.7947731 -7.88881588 0.1524007022 0.9617832899 
19.17645836 -7.393886089 7.63448611e-07 0.9615083337 
19.43803978 -6.80300951 7.941863487e-07 0.9618928432 
19.65381432 -6.202812195 1.530339318e-06 0.9622101188 
19.82429314 -5.595276833 1.62007882e-06 0.9624609351 
19.94992638 -4.982255936 2.127331527e-06 0.9626457691 
20.03104591 -4.365444183 2.62032745e-06 0.9627650976 
20.067873 -3.746507645 2.496091156e-06 0.9628193378 
20.06051064 -3.127039433 2.338000286e-06 0.9628084898 
20.00893402 -2.508628368 1.90159767e-06 0.9627325535 
19.91300774 -1.892918348 1.469778113e-06 0.9625914693 
19.77247047 -1.281506062 1.755954713e-06 0.9623846412 
19.58693886 -0.676220417 9.421107166e-07 0.9621118307 
19.35596466 -0.07886362076 5.229551903e-07 0.9617721438 
19.0789814 0.5084071159 6.209149888e-07 0.9613651037 
18.75536919 1.083420753 4.089125696e-07 0.9608896971 
18.38449478 1.643773079 7.723248245e-07 0.9603450894 
17.96569443 2.186626434 1.027580311e-06 0.9597305655 
17.49836922 2.708967686 5.105730452e-07 0.9590452313 
16.98200226 3.20742321 6.679079547e-07 0.95828861 
16.41624069 3.678220272 6.66512733e-07 0.9574602246 
15.80097675 4.117180824 4.78374659e-07 0.9565602541 
15.13641739 4.519706726 -2.966402235e-07 0.955589056 
14.42320919 4.88076973 -2.520369549e-07 0.9545478821 
13.66256714 5.194882393 -2.766904394e-08 0.9534387589 
12.85640621 5.456160545 -2.002590271e-08 0.952264607 
12.00746536 5.658349037 3.398305637e-08 0.9510297179 
11.11951447 5.794888496 -5.759058581e-07 0.9497398734 
10.1975069 5.859085083 1.82189396e-07 0.9484022856 
9.247709274 5.844200134 1.579477527e-08 0.9470264912 
8.277897835 5.743758202 -5.228354212e-07 0.9456236362 
7.297432899 5.551720619 -8.425744795e-07 0.9442075491 
6.317300797 5.262890816 -5.164216077e-07 0.9427940845 
5.350039482 4.873224258 -1.220380682e-06 0.941401124 
4.410066128 4.380254269 -1.534521971e-06 0.9400496483 
3.512466431 3.783528805 -7.790413292e-07 0.9387607574 
2.673653126 3.08489418 -1.151501351e-06 0.9375579357 
1.910287857 2.288962841 -1.399853545e-06 0.9364646077 
1.238856673 1.403186798 -7.998960427e-07 0.9355040193 
0.674861908 0.4379985332 -1.504001148e-06 0.9346979856 
0.231944859 -0.5932877064 -1.65559436e-06 0.9340652823 
-0.0784111321 -1.674855947 -1.729833116e-06 0.9336223006 
-0.2480508983 -2.788818836 -1.965714318e-06 0.9333803058 
-0.2724514008 -3.915964603 -1.879398837e-06 0.933345437 
-0.1508990228 -5.03650856 -2.140757715e-06 0.9335188866 
0.1132973209 -6.130949497 -7.551307135e-07 0.9338958859 
0.6169022322 -7.15477562 0.05730603263 0.9349206686 
1.303297997 -8.081774712 0.1519058943 0.936407268 
1.924648643 -8.979578018 0.1495993286 0.9372846484 
2.666436911 -9.780302048 0.1629962921 0.9384196401 
3.463267326 -10.49841022 0.1615371704 0.9395555258 
4.324377537 -11.11739254 0.1608244777 0.9407892227 
5.23240757 -11.63519669 0.1600370854 0.9420916438 
6.172049046 -12.05155087 0.1591973454 0.9434411526 
7.12905407 -12.36814308 0.1583612859 0.9448177218 
8.090506554 -12.58849621 0.1574876308 0.9462025166 
9.045126915 -12.71731758 0.1565885693 0.9475793242 
9.983215332 -12.76025391 0.1556762457 0.9489340782 
10.8966341 -12.72350121 0.1547599882 0.9502548575 
11.77876472 -12.61356449 0.15384911 0.9515320659 
12.62432671 -12.4370203 0.1529514939 0.9527578354 
13.4292326 -12.20032978 0.1520721614 0.9539259076 
14.19046021 -11.90971375 0.1512181163 0.9550318718 
14.90585041 -11.57105541 0.1503923982 0.9560722113 
15.57397366 -11.1898613 0.1495983452 0.9570447803 
16.19402122 -10.77120399 0.1488383412 0.9579480886 
16.76561737 -10.31972885 0.1481150985 0.9587814212 
17.28874969 -9.839677811 0.1474305391 0.9595446587 
17.76170921 -9.330718994 0.1524009556 0.9602658153 
18.18834305 -8.8045578 0.1524011195 0.9608922005 
18.56774712 -8.260316849 0.1524009258 0.9614496231 
18.90057755 -7.700758934 0.1524007022 0.961938858 
19.26877975 -7.198084831 4.105500579e-07 0.9616440535 
19.51502609 -6.603878975 5.805909495e-07 0.9620060325 
19.71564865 -6.001021385 1.177269155e-06 0.9623010755 
19.87113571 -5.39146328 1.886860559e-06 0.9625298381 
19.98189735 -4.776987076 2.041371999e-06 0.9626927972 
20.04823494 -4.159288883 2.502826874e-06 0.9627904296 
20.07032394 -3.539994478 2.203543545e-06 0.9628229141 
20.04823303 -2.920706511 1.951891818e-06 0.9627904296 
19.98189354 -2.302991629 2.19785511e-06 0.9626927972 
19.87113762 -1.688531995 2.347449936e-06 0.9625298381 
19.71564484 -1.078995466 1.794341642e-06 0.9623011351 
19.51502419 -0.4761092663 1.197663437e-06 0.9620060325 
19.26877403 0.1181089878 1.093759806e-06 0.9616439939 
18.97632217 0.7015604973 1.120259753e-06 0.9612142444 
18.63702774 1.271989822 1.036461072e-06 0.9607158899 
18.25024986 1.826786995 2.225580005e-07 0.9601480961 
17.81533813 2.363180637 5.028262535e-07 0.9595100284 
17.33171082 2.877956867 5.452988034e-07 0.9588009715 
16.79891014 3.367629051 3.982594166e-08 0.9580204487 
16.21665192 3.828294754 7.996325735e-07 0.9571681619 
15.58490467 4.255646229 5.285734233e-07 0.9562443495 
14.90402985 4.644933701 1.035961759e-06 0.9552497268 
14.17485619 4.990973473 4.082956764e-07 0.954185605 
13.39878654 5.28814888 6.689567158e-07 0.9530544281 
12.57800293 5.530440331 2.796835474e-07 0.9518594742 
11.71559429 5.711483002 3.963522204e-07 0.9506055713 
10.81567669 5.824660301 -8.659937407e-07 0.9492988586 
9.88363266 5.863233566 -4.26008171e-08 0.9479474425 
8.926232338 5.82053566 -9.386067745e-07 0.9465612173 
7.951748371 5.690197945 -4.924531822e-07 0.9451523423 
6.970078468 5.466422081 -7.828444382e-07 0.9437352419 
5.992795944 5.144356728 -7.340225352e-07 0.9423265457 
5.033054352 4.720436096 -1.161845148e-06 0.9409452677 
4.105343819 4.192831993 -6.115685665e-07 0.9396118522 
3.225473166 3.561791897 -1.29472005e-06 0.9383490086 
2.409871101 2.830067158 -9.4410359e-07 0.9371798038 
1.675455809 2.003207207 -1.011064114e-06 0.9361284971 
1.038173676 1.08967638 -1.169210918e-06 0.9352170825 
0.5130921006 0.1008434296 -1.576060868e-06 0.9344667792 
0.1132973209 -0.9490792751 -7.551307135e-07 0.9338959455 
-0.1508999318 -2.043491364 -1.893928811e-06 0.9335188866 
-0.2724514008 -3.164068222 -1.879398837e-06 0.933345437 
-0.248073563 -4.291190624 -1.815719656e-06 0.9333801866 
-0.07840695232 -5.405158997 -8.747916809e-07 0.9336223006 
0.2319490314 -6.486730576 -8.005529821e-07 0.9340652823 
0.9476580024 -7.442227364 0.1523784399 0.935900867 
1.498801112 -8.389825821 0.1511161923 0.9366828799 
2.153885126 -9.260489464 0.1488748342 0.9376092553 
3.120249748 -9.924877167 0.2898449004 0.9397506714 
3.744101524 -10.71586895 0.1613081843 0.9399577379 
4.622616768 -11.30129433 0.160569191 0.9412168264 
5.542858601 -11.78521442 0.15976201 0.9425373077 
6.489813328 -12.16802597 0.1589234769 0.9438980222 
7.449630737 -12.45207596 0.158073172 0.9452792406 
8.40998745 -12.64134407 0.1571899652 0.9466630816 
9.360089302 -12.7408762 0.1562851816 0.9480339885 
10.2907877 -12.75653934 0.1553705782 0.9493786097 
11.19445324 -12.69466019 0.154455319 0.9506859183 
12.06491661 -12.56179142 0.1535487771 0.9519467354 
12.89731026 -12.36449528 0.1526558697 0.9531538486 
13.6879549 -12.10915375 0.1517849714 0.9543016553 
14.4340992 -11.8018856 0.1509397775 0.9553860426 
15.13386345 -11.44845963 0.150124222 0.9564040303 
15.78603363 -11.05422688 0.1493408233 0.9573536515 
16.3899498 -10.62413311 0.1485938579 0.9582336545 
16.945364 -10.16269398 0.1478830278 0.959043622 
17.45223427 -9.67357254 0.1477325559 0.9597861171 
17.90920639 -9.157527924 0.1524011195 0.9604822993 
18.32003021 -8.625009537 0.1524005234 0.9610856175 
18.68383598 -8.075365067 0.1524001658 0.9616202712 
19.07898903 -7.588394165 6.120549187e-07 0.9613651037 
19.35596466 -7.001105785 5.229551903e-07 0.9617722034 
19.58694458 -6.403802872 8.759734555e-07 0.9621117711 
19.77246857 -5.79848671 7.444301104e-07 0.9623847008 
19.91301346 -5.187099457 1.617401153e-06 0.9625914097 
20.00893974 -4.571357727 2.049220711e-06 0.9627325535 
20.06050873 -3.952946186 2.708243755e-06 0.9628084898 
20.067873 -3.333488226 3.170440777e-06 0.9628193378 
20.0310421 -2.714551449 2.316221298e-06 0.9627650976 
19.94992828 -2.097709656 1.757087944e-06 0.9626457095 
19.82428932 -1.484732628 1.102212195e-06 0.9624609351 
19.65380669 -0.8771576881 1.078610012e-06 0.9622101188 
19.43803596 -0.2769787312 1.320912929e-06 0.9618928432 
19.17645645 0.3138897419 1.133692081e-06 0.9615083337 
18.8684597 0.8932776451 5.691200045e-07 0.9610557556 
18.51341248 1.458790302 3.560903963e-07 0.9605343938 
18.11065674 2.007800579 4.523129178e-07 0.9599432349 
17.65956497 2.53734684 4.098135378e-07 0.9592815638 
17.15958786 3.044165134 8.647008087e-08 0.9585487247 
16.61033058 3.524607658 5.733664921e-07 0.95774436 
16.01155472 3.97466898 2.455290371e-07 0.9568681717 
15.3633728 4.389881611 3.562553275e-07 0.9559206367 
14.6662817 4.765356064 -6.05349868e-08 0.9549026489 
13.92127705 5.095750809 1.98992069e-07 0.9538158774 
13.13001633 5.375324249 -4.101455318e-07 0.9526629448 
12.29498577 5.597913742 -4.804972491e-07 0.9514477849 
11.41955376 5.757083893 2.969786976e-07 0.9501755238 
10.50825977 5.846138954 -5.261196065e-07 0.9488528967 
9.566937447 5.858355522 2.213288184e-07 0.9474886656 
8.602833748 5.787130356 -2.681808837e-07 0.9460934401 
7.624779224 5.626251221 -8.934445077e-07 0.9446800947 
6.643218517 5.370196342 -8.230782669e-07 0.9432638288 
5.670285225 5.014499664 -1.439139936e-07 0.9418621659 
4.719435215 4.556134224 -7.094203625e-07 0.9404941797 
3.805940151 3.99390173 -1.01670048e-06 0.9391819239 
2.945680618 3.328859329 -1.02986678e-06 0.9379478097 
2.155335903 2.564689636 -1.299670885e-06 0.9368154407 
1.451485157 1.707841873 -3.531896198e-07 0.9358081222 
0.8500314355 0.7677793503 -1.989244765e-06 0.9349482656 
0.36534217 -0.2431137562 -1.534829721e-06 0.9342557788 
0.009738680907 -1.309827089 -8.365283293e-07 0.933748126 
-0.2075107694 -2.415081024 -2.202828455e-06 0.9334381223 
12.89728642 -12.14606571 0.1525803655 0.9537629485 
13.66883755 -11.90223408 0.1517319232 0.9548688531 
14.39784622 -11.60711479 0.1509072334 0.955914855 
15.08231449 -11.26627159 0.1501112878 0.9568978548 
15.72090626 -10.88489723 0.1493459195 0.9578157067 
16.31283188 -10.4677887 0.1486152261 0.9586672187 
16.85773468 -10.01935577 0.1479185671 0.9594516158 
17.35545731 -9.543327332 0.1476420015 0.960170567 
17.80449486 -9.040174484 0.1524007618 0.9608467817 
18.20845985 -8.520406723 0.1524006873 0.9614323378 
18.56642342 -7.983353138 0.1524011344 0.9619514942 
18.95425415 -7.50726223 1.179202627e-06 0.961689055 
19.22706413 -6.932445049 6.41571944e-07 0.9620848298 
19.45464134 -6.347499847 6.119324212e-07 0.9624150991 
19.63750076 -5.754417419 1.243637712e-06 0.9626805186 
19.7760601 -5.155134201 1.390385137e-06 0.9628816843 
19.87064362 -4.551449776 1.15599164e-06 0.963019073 
19.92150688 -3.944941044 1.464500997e-06 0.9630929232 
19.92876625 -3.337481022 2.511327693e-06 0.9631034732 
19.89244843 -2.730489731 2.394465582e-06 0.9630507231 
19.81245422 -2.125730038 1.138749326e-06 0.9629345536 
19.688591 -1.524692535 7.265509794e-07 0.9627546668 
19.52054405 -0.9293830395 6.418817406e-07 0.962510705 
19.30792236 -0.3415338993 1.017148179e-06 0.9622021914 
19.05025101 0.2368822098 3.302056086e-07 0.961828351 
18.74699783 0.8036737442 6.007441016e-07 0.9613885283 
18.39759064 1.356444359 5.782824815e-07 0.9608820081 
18.00146866 1.892504215 6.893538966e-07 0.9603081346 
17.55810928 2.408958435 4.522897541e-07 0.9596662521 
17.06706238 2.90256834 4.07551795e-07 0.9589558244 
16.52803802 3.369743347 2.549699332e-07 0.9581765532 
15.94096279 3.8065238 4.533879974e-07 0.9573286176 
15.30606174 4.208548546 2.719857548e-07 0.956412375 
14.62394714 4.571053505 2.359494999e-07 0.9554289579 
13.8957777 4.88885498 -5.190184424e-07 0.9543803334 
13.12331963 5.156399727 -2.022273904e-08 0.953269124 
12.30912399 5.367769241 5.819068178e-07 0.9520993233 
11.45669556 5.516793251 2.567805097e-07 0.9508761168 
10.57057476 5.597114563 -1.636693696e-07 0.9496061802 
9.656551361 5.602361679 -8.428653331e-08 0.9482980967 
8.721785545 5.526325226 6.362269289e-08 0.9469621778 
7.77492094 5.363229752 -1.032928367e-06 0.9456108809 
6.826070309 5.107981682 -1.103691602e-06 0.9442586899 
5.886847019 4.756551743 -1.087410851e-06 0.9429219961 
4.970621586 4.306248665 -4.61356251e-07 0.9416200519 
4.0914464 3.756250858 -9.327571888e-07 0.9403723478 
3.264657974 3.107797623 -7.082135198e-07 0.9392005205 
2.506046295 2.364629269 -2.038809725e-06 0.9381266236 
1.831189871 1.533119202 -1.885275879e-06 0.9371722937 
1.255068183 0.6224470139 -1.466815775e-06 0.9363583326 
0.7912743092 -0.3555240631 -1.817922907e-06 0.9357036352 
0.4511753917 -1.386445522 -1.923294576e-06 0.9352238178 
0.2434916049 -2.453896999 -1.346590466e-06 0.9349309802 
0.1736575663 -3.539992094 -1.98517705e-06 0.9348325133 
0.2434906811 -4.626111031 -1.099761448e-06 0.9349309802 
0.4511805177 -5.693561554 -1.315082159e-06 0.9352238774 
0.791238904 -6.724475861 -1.222687615e-06 0.935703516 
1.516844392 -7.623185158 0.1523436159 0.9375317097 
2.079333305 -8.517528534 0.1507484764 0.9383189082 
2.738168478 -9.334917068 0.148640424 0.9392405748 
3.5014081 -10.05369568 0.1613850594 0.9403897524 
5.462704659 -9.919082642 1.005634427 0.9476679564 
5.171196461 -11.2293272 0.159995839 0.9427535534 
6.068303585 -11.67144108 0.1592019051 0.9440256953 
6.987899303 -12.0167799 0.1583781838 0.9453314543 
7.917205811 -12.26789379 0.1575462073 0.9466528893 
8.844758987 -12.42875862 0.1566862315 0.9479734898 
9.760619164 -12.50430393 0.155807212 0.9492790699 
10.65634823 -12.50017643 0.1549204588 0.9505575299 
11.52491951 -12.42241287 0.1540339738 0.9517987967 
12.36064529 -12.27723503 0.1531566828 0.9529944658 
13.15904427 -12.07084465 0.1522951722 0.9541380405 
13.91668987 -11.80927849 0.1514540464 0.9552243352 
14.6310339 -11.49832249 0.1506386399 0.9562495947 
15.30032539 -11.14340401 0.1498527676 0.9572110772 
15.92342854 -10.74960041 0.1490991563 0.9581069946 
16.49970436 -10.32158566 0.1483790576 0.9589361548 
17.02890587 -9.863624573 0.1476950198 0.959698081 
17.50937843 -9.375626564 0.1523999572 0.9604192376 
17.94429588 -8.869012833 0.1524006128 0.9610493779 
18.33286667 -8.343166351 0.1524009705 0.9616127014 
18.67561913 -7.800956249 0.1524008811 0.9621099234 
19.05025101 -7.316926003 -4.003787524e-08 0.9618282914 
19.30792427 -6.738499641 2.766611829e-07 0.9622021317 
19.52054405 -6.150608063 6.418817406e-07 0.962510705 
19.68859291 -5.555250168 1.861490091e-06 0.9627546668 
19.81245422 -4.954302788 9.249889672e-07 0.9629345536 
19.89245033 -4.3495121 2.024222113e-06 0.9630507231 
19.92876816 -3.742524147 2.141084224e-06 0.9631034732 
19.92150497 -3.135026932 1.711329901e-06 0.9630929232 
19.87064171 -2.528598785 1.773064014e-06 0.963019073 
19.77605629 -1.92485857 6.256896086e-07 0.9628816843 
19.63750267 -1.325602055 8.733942423e-07 0.9626805186 
19.45463943 -0.732489109 9.821759477e-07 0.9624150395 
19.22706413 -0.1475195885 6.41571944e-07 0.9620847702 
18.95425606 0.4272651672 8.089591006e-07 0.961689055 
18.63568115 0.9896445274 3.129706272e-07 0.961227119 
18.27076912 1.537144661 7.570072853e-07 0.960698247 
17.85895348 2.066988468 4.542071963e-07 0.9601017833 
17.39974403 2.576201916 6.064046261e-07 0.9594370723 
16.89272881 3.061412334 7.510838032e-07 0.9587037563 
16.33768082 3.518923283 7.970920706e-07 0.9579015374 
15.73461533 3.944626331 4.137431517e-07 0.9570307136 
15.08388233 4.334019661 1.675016961e-07 0.9560919404 
14.38626671 4.682220459 7.123709622e-08 0.9550865889 
13.64309692 4.983903885 -1.453647513e-07 0.9540166855 
12.85640621 5.233397484 -2.002590271e-08 0.9528855085 
12.02902794 5.424684525 -7.403237419e-07 0.9516972303 
11.16479874 5.551520348 -4.098602346e-07 0.9504575729 
10.26867676 5.607515335 3.895487453e-07 0.9491739273 
9.3468647 5.586341858 8.423545239e-08 0.9478552938 
8.407034874 5.481904984 -3.409692226e-07 0.9465127587 
7.458310127 5.288610458 -5.623528523e-07 0.9451594353 
6.511331558 5.001690865 -7.855165904e-07 0.9438105822 
5.57828331 4.617502213 -5.422401159e-07 0.9424834251 
4.672695637 4.133979797 -9.768280052e-07 0.9411970973 
3.809263229 3.550907612 -1.861073201e-06 0.9399722815 
3.003464222 2.870341778 -1.018980925e-06 0.9388306737 
2.271008968 2.096878529 -9.744188674e-07 0.9377941489 
1.627469897 1.237825871 -2.05986521e-06 0.9368844032 
1.087374449 0.3032667637 -1.820283273e-06 0.936121583 
0.6636598706 -0.6940522194 -1.365524895e-06 0.9355235696 
0.3668923378 -1.739066005 -1.240111828e-06 0.9351049662 
0.2047207057 -2.814775705 -1.261250873e-06 0.9348762631 
0.1814257056 -3.902967215 -2.190973191e-06 0.934843421 
0.2976014912 -4.984910488 -1.300195549e-06 0.9350072742 
0.5501973629 -6.042116165 -1.633666216e-06 0.9353635311 
0.932659328 -7.057106972 -5.070896805e-07 0.9359031916 
1.693441868 -7.928973198 0.1522596627 0.9377809763 
2.288805723 -8.7990942 0.150023818 0.938611567 
2.993162155 -9.580417633 0.1585283279 0.9396542311 
3.764499426 -10.27621269 0.1611750871 0.9407618642 
4.592522621 -10.88036537 0.1604924798 0.9419337511 
5.466892242 -11.387537 0.159736827 0.9431726933 
6.372986317 -11.79722023 0.1589252055 0.9444580674 
7.297192574 -12.11078262 0.1581052393 0.9457710981 
8.227106094 -12.33132267 0.1572625935 0.947093904 
9.151787758 -12.46314812 0.1563942581 0.9484109879 
10.06181526 -12.51148701 0.1555109024 0.9497087598 
10.94919586 -12.48213196 0.1546240002 0.9509758353 
11.80738735 -12.38119888 0.1537395716 0.9522027373 
12.63112068 -12.21493912 0.1528676599 0.9533817172 
13.41626263 -11.98949337 0.1520113498 0.9545066953 
14.1597147 -11.71083832 0.151178658 0.955573082 
14.85920906 -11.38463783 0.1503738016 0.956577301 
15.51319599 -11.01621914 0.1495972872 0.9575170875 
16.12074471 -10.61051178 0.148854509 0.9583908319 
16.68133736 -10.17205238 0.1481474191 0.9591976404 
17.19484711 -9.704999924 0.1474753916 0.9599370956 
17.65952873 -9.209085464 0.1524003595 0.960636735 
18.07895088 -8.695714951 0.1524008662 0.9612445235 
18.45218277 -8.16411972 0.1524005383 0.9617857933 
18.77977753 -7.617036819 0.1524009258 0.9622610807 
19.14118195 -7.125295639 6.887448762e-07 0.9619601965 
19.38377762 -6.543486118 2.837109037e-07 0.9623122215 
19.58149338 -5.952872276 8.252882253e-07 0.9625992179 
19.73476982 -5.355465889 2.09484142e-06 0.9628217816 
19.8439827 -4.753046036 8.769730471e-07 0.96298033 
19.90940094 -4.147377491 1.762721809e-06 0.9630753398 
19.93118668 -3.540034771 1.703285079e-06 0.9631069899 
19.90940285 -2.932676315 1.853067715e-06 0.9630753398 
19.8439827 -2.326987743 1.551322725e-06 0.9629803896 
19.73476982 -1.724520326 2.09484142e-06 0.962821722 
19.58148956 -1.127125025 8.914254863e-07 0.9625992179 
19.38377571 -0.5365054607 9.00783391e-07 0.9623122215 
19.14117432 0.04530906677 3.604300503e-07 0.9619601965 
18.85318184 0.6162204742 1.040855068e-06 0.9615424275 
18.51921844 1.173914909 1.952546569e-07 0.9610583186 
18.13873291 1.71585083 6.345945849e-07 0.9605069757 
17.7111721 2.239173412 9.011219504e-07 0.9598878622 
17.23605919 2.740784645 3.365934731e-07 0.959200263 
16.71305084 3.217195988 3.975936522e-07 0.9584439993 
16.14198685 3.664571285 1.625953416e-08 0.9576188922 
15.52297783 4.078691959 5.318046306e-07 0.9567252994 
14.85649586 4.454925537 -6.185811685e-08 0.9557641149 
14.14352131 4.78822422 9.975515525e-09 0.9547370076 
13.38557434 5.073159218 1.717116334e-07 0.9536462426 
12.58495617 5.30393219 2.352992823e-07 0.9524954557 
11.74482346 5.474440575 -2.173114808e-07 0.9512893558 
10.86934948 5.578369141 -8.088188963e-08 0.9500342011 
9.963898659 5.609337807 -5.251121706e-07 0.9487377405 
9.035171509 5.561071396 -1.097112303e-07 0.9474098086 
8.091283798 5.427602768 -2.238071204e-07 0.9460621476 
7.141863346 5.203574181 -6.569413813e-07 0.9447084665 
6.198117256 4.884567261 -1.12449959e-06 0.9433648586 
5.272651196 4.467417717 -6.186896258e-07 0.9420490861 
4.379440784 3.950624943 -1.062246952e-06 0.9407808781 
3.533471107 3.334703445 -2.268399157e-06 0.9395813942 
2.750414133 2.622543812 -1.370333507e-06 0.9384725094 
2.045859337 1.819574356 -1.301092652e-06 0.9374758005 
1.435191274 0.9341173172 -1.307752427e-06 0.9366126657 
0.9326352477 -0.02290225029 -1.952623506e-06 0.935903132 
0.5501897931 -1.037909269 -5.802129408e-07 0.9353634715 
0.2975984812 -2.095088959 -1.480887249e-06 0.9350072145 
0.1814180911 -3.177061558 -1.13752003e-06 0.934843421 
0.2047234625 -4.265235424 -2.001737812e-06 0.9348762631 
0.3668981194 -5.340944767 -1.799907068e-06 0.9351049662 
0.6636598706 -6.385960579 -1.365524895e-06 0.9355235696 
1.352425337 -7.310052872 0.1523978263 0.9372995496 
1.880714178 -8.227367401 0.151493445 0.9380418062 
2.508598328 -9.07166481 0.1493210196 0.9389190078 
3.246820688 -9.820254326 0.1623534858 0.9400337934 
4.034421444 -10.48825169 0.1609563977 0.9411437511 
4.87956953 -11.0602684 0.1602475792 0.9423403144 
5.766110897 -11.53490448 0.1594718844 0.9435969591 
6.679691792 -11.91230679 0.1586455852 0.9448935986 
7.607094288 -12.19443417 0.1578271389 0.9462117553 
8.536414146 -12.38488007 0.1569747031 0.9475342631 
9.457183838 -12.48826504 0.1561011523 0.9488463402 
10.36047649 -12.51003742 0.1552156657 0.9501350522 
11.238801 -12.45613289 0.1543282419 0.95138973 
12.08603001 -12.33273411 0.153447181 0.9526013732 
12.89728642 -12.14606571 0.1525803655 0.9537629485 
13.66884232 -11.90223503 0.1517320424 0.9548688531 
14.3978529 -11.6071167 0.1509074718 0.955914855 
15.08231926 -11.26626968 0.1501109153 0.9568978548 
15.7209177 -10.88489246 0.149346292 0.9578157067 
16.31284523 -10.46777916 0.1486153007 0.9586672187 
16.85773468 -10.01935577 0.1479185671 0.9594516158 
17.3554554 -9.543324471 0.1476422548 0.960170567 
17.80449677 -9.040168762 0.1524005979 0.9608467817 
18.20846748 -8.520401001 0.1524005532 0.9614323378 
18.56642723 -7.983342648 0.1524008214 0.9619514942 
18.95426178 -7.50725174 1.257493807e-07 0.961689055 
19.22706413 -6.932445049 6.41571944e-07 0.9620848298 
19.45464325 -6.347497463 9.160386298e-07 0.9624150991 
19.63750458 -5.754414082 7.169111313e-07 0.9626805186 
19.77606201 -5.155127525 7.733127063e-07 0.9628816843 
19.87064552 -4.551449776 9.995085293e-07 0.963019073 
19.92150688 -3.945027351 1.464500997e-06 0.9630929232 
19.92876625 -3.337481022 2.511327693e-06 0.9631034732 
19.89244843 -2.730490446 2.394465582e-06 0.9630507231 
19.81245232 -2.125710011 1.295232437e-06 0.9629345536 
19.6885891 -1.524734974 1.096794449e-06 0.9627546668 
19.52053833 -0.9293634892 1.078262471e-06 0.962510705 
19.30791664 -0.3414912224 8.695250813e-07 0.9622021317 
19.05025101 0.2368822098 3.302056086e-07 0.961828351 
18.74699402 0.803712368 1.217816589e-06 0.9613884687 
18.39758873 1.356451988 9.48526008e-07 0.9608820081 
18.00146484 1.892512321 3.852476596e-07 0.9603081346 
17.55810165 2.408967018 4.611497957e-07 0.9596662521 
17.06705475 2.902575493 5.39826317e-07 0.9589558244 
16.52803802 3.369743347 2.549699332e-07 0.9581765532 
15.94095802 3.80652523 8.28061502e-07 0.9573286176 
15.30606174 4.208550453 2.719857548e-07 0.956412375 
14.62394047 4.571054459 -3.287308914e-08 0.9554289579 
13.89576435 4.888854027 -7.481273769e-07 0.9543803334 
13.12329769 5.156401634 -1.710509991e-07 0.953269124 
12.30912399 5.367769241 5.819068178e-07 0.9520993233 
11.45669079 5.516792297 -3.205782946e-07 0.9508761168 
10.57056141 5.59711647 4.049858831e-07 0.9496061802 
9.656534195 5.602357864 -4.323799487e-07 0.9482980967 
8.72177124 5.526324272 -9.01543217e-07 0.9469621778 
7.774898529 5.363229752 -8.829338185e-07 0.9456108212 
6.826070309 5.107981682 -1.103691602e-06 0.9442586899 
5.886851788 4.756548882 -1.400377073e-06 0.9429219961 
4.970608711 4.306247234 -9.372941463e-07 0.9416200519 
4.091439247 3.756244183 -1.968490324e-06 0.9403723478 
3.26465106 3.10779047 -8.227679587e-07 0.9392005205 
2.506046295 2.364629269 -2.038809725e-06 0.9381266236 
1.831189871 1.533119202 -1.885275879e-06 0.9371722937 
1.255068183 0.622440815 -1.466815775e-06 0.9363583326 
0.7912733555 -0.3555338383 -1.57109389e-06 0.9357036352 
0.4511735737 -1.386462927 -1.429636654e-06 0.9352238178 
0.2434916049 -2.453914642 -1.346590466e-06 0.9349309802 
12.89726543 -11.93334198 0.1525048316 0.9543495774 
13.65019894 -11.70047474 0.1516788751 0.9554154277 
14.362463 -11.4169836 0.1508759707 0.9564246535 
15.03194523 -11.08823204 0.1500987411 0.9573740959 
15.65720463 -10.71924019 0.1493508369 0.9582616091 
16.23733711 -10.31469154 0.1486358047 0.9590856433 
16.7718544 -9.878881454 0.147954151 0.9598454237 
17.26051903 -9.41553688 0.1476051658 0.9605420232 
17.70172501 -8.924991608 0.1524007171 0.9611986279 
18.09889603 -8.417657852 0.1524010152 0.9617670774 
18.45104408 -7.892920971 0.1524006128 0.9622713327 
