# .PCD v0.7 - Point Cloud Data file format
VERSION 0.7
FIELDS x y z intensities
SIZE 4 4 4 4
TYPE F F F F
COUNT 1 1 1 1
WIDTH 911
HEIGHT 1
VIEWPOINT 0 0 0 1 0 0 0
POINTS 911
DATA ascii
-16.88360977 15.69992161 6.761933327 0.861536324 
-24.06675529 15.69987965 7.033128738 0.8401011825 
-143.0500031 58.14424133 5.806833744 0.5072762966 
-147.1377716 44.21164703 7.072540283 0.5085949302 
-143.0500031 28.59527206 8.009594917 0.5245915055 
-217.8833771 23.27988434 8.860549927 0.3915285468 
-217.3961334 3.124196053 9.236473083 0.3945616484 
-217.6763306 -16.8955574 9.162632942 0.3936673701 
-61.68833923 -14.60625839 8.207992554 0.733496964 
-61.59833527 -21.41139221 7.876024723 0.7300644517 
-95.88835144 -39.67232513 7.095038891 0.6271806955 
-150.4600372 -73.61798096 5.15771389 0.4873153567 
-72.12828064 -49.57590866 5.468279362 0.6741514802 
-144.075882 -105.8049698 0.9446583986 0.4690840244 
-80.80962372 -77.34819031 1.882009506 0.6160733104 
-61.46146393 -73.5348587 1.216789842 0.6599894166 
-38.87673569 -61.97473907 1.501337528 0.7268848419 
-23.65415955 -53.31489563 1.731562257 0.7762123942 
-18.21047974 -54.69056702 0.7769137621 0.7821961045 
-11.63447475 -53.2972641 0.1793428361 0.7961984873 
6.70651865 -22.77505875 4.653563023 0.9186502695 
1.344595909 -44.39110184 0.1660680622 0.8393576145 
5.979064465 -40.73453522 0.1613145322 0.8553287983 
9.767109871 -37.47015762 0.1574415118 0.8686085343 
12.89777279 -34.52550125 0.1542418748 0.8797392249 
15.50934982 -31.8445816 0.1515733749 0.889133513 
17.70493317 -29.38309097 0.1493759751 0.8971095681 
19.5624752 -27.10563278 0.1476267278 0.9039149284 
21.13806534 -24.97068787 0.151044026 0.9097957015 
22.62795258 -23.35355759 1.634442742e-05 0.9132428169 
23.8010273 -21.43991089 1.692819023e-05 0.9176271558 
24.80501747 -19.62508774 1.627439269e-05 0.9213962555 
25.6635952 -17.89458084 1.728726056e-05 0.9246317148 
26.39566803 -16.23591614 1.696293293e-05 0.9273995757 
27.0165062 -14.63829327 1.75447949e-05 0.9297532439 
27.5383873 -13.09206963 1.649893238e-05 0.9317364097 
27.97112465 -11.58878994 1.691501711e-05 0.9333840013 
28.32257462 -10.12071991 1.645788325e-05 0.9347242713 
28.59889221 -8.68081665 1.175366924e-05 0.9357792735 
28.80475044 -7.262531281 1.27152507e-05 0.936566174 
28.94359589 -5.859704018 1.233576495e-05 0.9370971918 
29.01769066 -4.466396332 1.278983564e-05 0.9373807311 
29.02823257 -3.076882362 1.264213734e-05 0.9374211431 
28.97540665 -1.685490251 1.158082432e-05 0.9372189045 
28.85833931 -0.2864701748 1.181938751e-05 0.9367710948 
28.67514038 1.125998974 1.159524345e-05 0.9360706806 
28.42277336 2.557974815 1.177746799e-05 0.9351066351 
28.09697342 4.015910625 1.12349453e-05 0.9338636398 
27.69211006 5.506649017 1.152026016e-05 0.9323212504 
27.20093155 7.037631989 9.849923117e-06 0.9304535389 
26.6143055 8.617135048 1.070895541e-05 0.928227663 
25.92082405 10.25432873 1.186800273e-05 0.9256033301 
25.1063652 11.95956039 1.613441782e-05 0.9225304127 
24.15316963 13.74479389 1.683928895e-05 0.9189473987 
23.0394249 15.62375355 1.687409713e-05 0.9147782326 
21.60927773 17.20956802 0.152416423 0.9115667939 
20.11382103 19.28697968 0.1524161994 0.9060180783 
18.35622215 21.5091362 0.1537382454 0.8995579481 
16.12473679 20.53186417 1.1196661 0.9046162963 
13.85849094 25.54956818 0.4078793824 0.8866166472 
10.87835789 29.35712051 0.1608408689 0.8726035953 
7.364346504 32.34264374 0.1999822855 0.8606869578 
3.052318096 35.86354446 0.1999813616 0.8456671238 
-0.1002199054 34.38342285 1.181930065 0.8474371433 
-3.953270435 34.3945961 1.828991055 0.8424758911 
-9.617595673 36.81740189 2.089661121 0.8264924288 
-4.608872414 23.23339081 4.493761539 0.8750418425 
-4.308883667 18.62491989 5.427390575 0.8886668086 
-4.935007572 15.77172184 6.037175655 0.8946722746 
-8.564243317 15.69992542 6.315712452 0.8852624893 
-13.85262966 16.18728638 6.547633648 0.8694204092 
-19.03385162 15.69991398 6.851623058 0.8551738858 
-27.04765129 15.69987583 7.125563622 0.8311085701 
-143.9888306 53.33729172 6.270912647 0.5089217424 
-38.47587967 10.56098747 7.810554981 0.8015432358 
-145.7490234 24.37712479 8.241500854 0.5206790566 
-217.6703491 16.5188942 9.036720276 0.3929225206 
-217.4185944 -3.539889574 9.261627197 0.3946768045 
-99.94711304 -13.45002651 8.512176514 0.6303383112 
-150.0650024 -32.2071228 8.247969627 0.5116348267 
-85.72936249 -30.10140228 7.643135548 0.6592236161 
-61.75833893 -31.00001144 7.165206432 0.7217282653 
-63.48191452 -39.45140076 6.36785078 0.7080128789 
-100.7317581 -68.96518707 4.094951153 0.5874240994 
-92.95664978 -77.35306549 2.565707684 0.5924046636 
-61.00246429 -65.59540558 2.567569017 0.6749779582 
-61.46147156 -77.61116028 0.4714766443 0.6525368094 
-38.76774597 -65.2609787 0.8362268806 0.7198757529 
-21.53048515 -53.41788101 1.467957973 0.7798335552 
-15.36208344 -53.31489563 0.7104514837 0.7905446887 
-9.028001785 -51.63176346 0.1766738892 0.8046837449 
-2.3416574 -47.09280777 0.1698368043 0.8268671632 
2.997831583 -43.12335968 0.164373979 0.8450205326 
7.325242043 -39.60678864 0.1599382609 0.860024631 
10.87605 -36.45608139 0.1563074589 0.8725350499 
13.8202486 -33.6049614 0.1532992125 0.8830462098 
16.283144 -31.00163651 0.1507836133 0.891936183 
18.35840034 -28.60498047 0.1487584859 0.8994976878 
20.11645699 -26.37852859 0.1484267265 0.9059727788 
21.6094799 -24.29006577 0.1522115171 0.9115647078 
23.03945541 -22.70367813 1.613123823e-05 0.914778471 
24.15318489 -20.8247757 1.682156835e-05 0.9189474583 
25.10634804 -19.03953171 1.735321348e-05 0.9225305319 
25.92082596 -17.33428764 1.647389581e-05 0.9256033897 
26.61431694 -15.69708824 1.699186396e-05 0.9282277822 
27.20093727 -14.11758995 1.693945524e-05 0.9304535985 
27.69211197 -12.58658504 1.750792217e-05 0.9323213696 
28.09692574 -11.09589005 1.737497223e-05 0.9338638186 
28.42277336 -9.637955666 1.500159306e-05 0.9351066947 
28.6751442 -8.205966949 1.220345621e-05 0.9360706806 
28.85835075 -6.793498516 1.23283935e-05 0.9367710948 
28.97540474 -5.394477367 1.186072222e-05 0.9372189641 
29.02823639 -4.003067493 1.236224034e-05 0.9374210835 
29.01768875 -2.613587379 1.282290395e-05 0.9373807311 
28.94359207 -1.22027874 1.172755219e-05 0.9370971918 
28.80474663 0.1825654507 1.210703795e-05 0.936566174 
28.59888268 1.600849628 1.142535439e-05 0.9357792735 
28.32257843 3.040758133 1.107843491e-05 0.9347242117 
27.97111893 4.508843422 1.124032224e-05 0.9333839417 
27.53838921 6.012093544 1.06588941e-05 0.9317363501 
27.0165062 7.558316231 1.106347463e-05 0.9297531843 
26.3956604 9.155965805 1.082764902e-05 0.9273994565 
25.66356277 10.81462479 1.25030474e-05 0.9246316552 
24.80498886 12.54512691 1.67373546e-05 0.9213961959 
23.80101204 14.3599329 1.694590901e-05 0.9176270962 
22.6279335 16.27357101 1.618145689e-05 0.9132427573 
21.13698196 17.88696671 0.1524161398 0.9098106623 
19.55954933 20.01077652 0.1525953859 0.9039725661 
17.70316696 22.28675842 0.1543592066 0.8971711397 
15.49265957 23.84030533 0.4078793228 0.8925518394 
-201.3862915 -3.539895535 6.468458652 0.4208129346 
-107.5283508 -14.06814289 7.008340836 0.6114419103 
-150.0650024 -32.10953903 6.155082226 0.5116485357 
-177.3818665 -54.09361649 4.836518288 0.4512411654 
-61.75835419 -30.90232849 6.150331497 0.7217748761 
-85.07849121 -49.16475677 4.552163601 0.6439285874 
-111.6427917 -74.85819244 1.926625967 0.5588464141 
-78.55062866 -67.24391937 1.894560933 0.6354755163 
-61.2750473 -65.54862213 1.34131074 0.6742850542 
-53.83834457 -69.91513824 0.05544051528 0.6812521815 
-36.41809082 -62.26227951 0.2047607303 0.7306932807 
-21.66348076 -53.31489563 0.7041322589 0.7795820236 
-8.307808876 -41.50361252 1.87870729 0.8353831172 
-5.472837925 -44.20736313 0.808829248 0.8316220641 
-1.266622782 -44.02030182 0.1687428206 0.8375329971 
3.621505022 -40.62976074 0.1637385786 0.8535786867 
7.641623497 -37.55869675 0.1596261263 0.867005229 
10.98036766 -34.75667953 0.1562106758 0.878316462 
13.77660656 -32.1825943 0.1533519179 0.8879032135 
16.13530922 -29.80247879 0.1509502232 0.8960713148 
18.13679695 -27.58784103 0.1490509361 0.9030631781 
19.84313774 -25.51457214 0.1478401572 0.9090723991 
21.29943848 -23.55212021 0.1515961289 0.9142963886 
22.69624901 -22.05786896 1.624305514e-05 0.9172626734 
23.79127693 -20.27102661 1.671186874e-05 0.9211854339 
24.73141098 -18.56515121 1.686415817e-05 0.9245666862 
25.5369873 -16.92898941 1.674845589e-05 0.9274738431 
26.22446251 -15.35262585 1.645005432e-05 0.9299620986 
26.80717278 -13.82726669 1.717726445e-05 0.932076335 
27.29583549 -12.34501553 1.743480971e-05 0.9338534474 
27.69925499 -10.89873409 1.740508742e-05 0.9353227019 
28.02429962 -9.481864929 1.467295897e-05 0.9365079403 
28.27626801 -8.088321686 1.263316062e-05 0.9374279976 
28.4593029 -6.712380886 1.167045775e-05 0.9380969405 
28.57631302 -5.348586082 1.171653548e-05 0.9385247827 
28.62913513 -3.991668701 1.213656742e-05 0.9387180209 
28.6185894 -2.636465549 1.2136642e-05 0.9386794567 
28.54450989 -1.277834415 1.166485163e-05 0.938408494 
28.40574455 0.08942174911 1.160970169e-05 0.9379011393 
28.2001133 1.470611095 1.12042926e-05 0.9371498227 
27.92431068 2.871272564 1.096230972e-05 0.9361431003 
27.57385635 4.297261715 1.041289124e-05 0.9348654151 
27.14286995 5.754771233 1.081699884e-05 0.933296442 
26.62387466 7.250571251 1.120405432e-05 0.9314106703 
26.0075531 8.792009354 1.02840595e-05 0.9291762114 
25.28232193 10.38728809 1.280151719e-05 0.9265537858 
24.43392372 12.04551601 1.683746814e-05 0.9234952331 
23.44460869 13.77705479 1.654497646e-05 0.9199417233 
22.29262352 15.59366703 1.581344259e-05 0.9158208966 
20.83742142 17.10795212 0.1524159163 0.9126625061 
19.30134964 19.09775925 0.1528403461 0.9072209597 
17.50358963 21.2136879 0.1545487791 0.9009094834 
15.37949181 22.61367035 0.4078790843 0.8967806697 
12.96570683 24.98461914 0.4078797102 0.8883843422 
9.936639786 28.56529617 0.1617364287 0.8748213053 
6.428298473 31.29571533 0.1999825537 0.8634218574 
2.15662694 34.47259521 0.1999821663 0.8491671085 
-1.482931733 34.36329651 0.8821009398 0.8455548286 
-5.398127556 34.29504395 1.51039362 0.8403958678 
-9.941286087 34.63731003 2.034584522 0.8319661617 
-4.246735573 21.10837936 4.502933025 0.8817291856 
-4.310402393 17.30049896 5.325919628 0.8921253681 
-6.113359928 15.69992924 5.777674198 0.8917186856 
-10.08117008 15.69992161 6.009673119 0.8810037374 
-15.04780674 15.69992924 6.226521492 0.8668448925 
-21.55209923 15.69990444 6.425731659 0.8476002812 
-102.7639389 46.1557312 4.38757658 0.5996044278 
-137.243988 45.89318085 4.762623787 0.5270792842 
-143.0500031 33.20820618 5.718556881 0.5225012302 
-149.9449463 20.18119049 6.364785671 0.513451457 
-38.44434357 -9.674203873 7.52502346 0.8063887954 
-72.90114594 -21.35139847 6.885248184 0.6985294223 
-107.4683304 -39.48281097 5.707810879 0.6001249552 
-146.7100067 -66.42620087 3.596682072 0.4994474351 
-190.9510498 -104.5901337 0.05542186275 0.3992478549 
-61.58826828 -49.57607269 3.920796633 0.6992063522 
-78.94507599 -71.47800446 1.233418345 0.6284273863 
-61.46880722 -69.37490082 0.6657955647 0.6671885252 
-34.53218079 -54.06742096 1.736611605 0.7526673079 
-26.16981888 -53.31489563 1.167441487 0.7711897492 
-19.55007553 -53.31489563 0.4656383991 0.7833075523 
-6.774525642 -41.34706497 1.711578608 0.8383495808 
-5.12974453 -46.48818207 0.172697708 0.8250656724 
0.4732680023 -42.85105515 0.1669614166 0.8432094455 
5.047615051 -39.57326508 0.1622794867 0.8583177328 
8.822584152 -36.59697342 0.1584171355 0.8709894419 
11.96695042 -33.87514496 0.1552027017 0.8816869855 
14.6070509 -31.36914825 0.1525039673 0.8907704949 
16.83877373 -29.04705048 0.1502810866 0.8985225558 
18.73578453 -26.88232422 0.1484859884 0.9051662683 
20.35395813 -24.84709549 0.1491838098 0.9109016657 
21.73714066 -22.92396164 0.1524171084 0.9158682227 
23.07991982 -21.45249557 1.62295546e-05 0.9186351299 
18.5371666 -9.804748535 4.897493839 0.9691467881 
25.01400757 -18.01252747 1.683572373e-05 0.9255854487 
25.7785511 -16.39733505 1.739427353e-05 0.9283474088 
26.42976379 -14.83889961 1.709768185e-05 0.9307064414 
26.98006058 -13.32875061 1.690420322e-05 0.9327045679 
27.4394207 -11.85925674 1.733950012e-05 0.9343761206 
27.816082 -10.42348385 1.705559225e-05 0.9357481599 
28.11618233 -9.015037537 1.244951e-05 0.936843276 
28.34477043 -7.627997398 1.182311917e-05 0.9376782775 
28.5055294 -6.25669384 1.178451112e-05 0.9382659197 
28.6009903 -4.895762444 1.18533344e-05 0.9386150837 
28.63264275 -3.540000677 1.260894533e-05 0.9387308955 
28.60098648 -2.184220791 1.213323139e-05 0.9386150837 
28.50550461 -0.8233165741 1.175381476e-05 0.9382660389 
28.34477043 0.547996521 1.136252922e-05 0.9376782775 
28.11617661 1.935057163 1.092011826e-05 0.936843276 
27.81604958 3.343503475 1.135020011e-05 0.9357482195 
27.43947792 4.779272079 1.060660907e-05 0.9343759418 
26.98006439 6.248767853 1.060357499e-05 0.9327045083 
26.42976761 7.758930206 1.055022494e-05 0.9307063818 
25.77855301 9.317362785 1.091295417e-05 0.9283473492 
25.01400185 10.93255615 1.208220601e-05 0.9255853891 
24.12075424 12.61401272 1.66590853e-05 0.9223690033 
23.07991409 14.37250423 1.608193088e-05 0.9186351299 
21.73713112 15.84395885 0.1524158865 0.9158682227 
20.35173225 17.7583313 0.152415514 0.9109366536 
18.73344612 19.78778458 0.1533803046 0.9052224159 
16.83760262 21.95116425 0.1551811099 0.8985824585 
14.61981869 23.38356781 0.4078792334 0.8941296339 
12.064641 25.8180809 0.4078791738 0.8852701187 
8.825998306 29.4985733 0.1627914608 0.8710563779 
5.095429897 32.31998825 0.1999814957 0.8589485288 
0.9819113612 34.39452744 0.4412434101 0.8482598066 
-2.729451656 34.28694534 1.106052637 0.8442024589 
-6.81430769 34.33606339 1.700107455 0.8380798101 
-4.24673748 24.18796921 3.802852869 0.8727967739 
-4.30753231 19.80304337 4.795722008 0.8852822185 
-4.406950474 16.25685501 5.545976639 0.8946486712 
-7.347659111 15.69992733 5.856616497 0.888459146 
-11.60512257 15.6999197 6.083714485 0.8767305613 
-17.00874329 15.69992161 6.295079231 0.8611038327 
-24.21299171 15.69987965 6.487356186 0.8396084309 
-102.7639389 42.25617981 4.793354034 0.6031535268 
-146.9019775 43.97583771 4.969730854 0.5091405511 
-143.0500031 28.48557281 5.995630741 0.5246111751 
-172.462265 17.97625351 6.33396244 0.4701039195 
-61.68833542 -14.56884003 7.239722729 0.7335025072 
-61.6043663 -21.35139847 6.894192696 0.7300645709 
-95.88833618 -39.54521179 5.641891956 0.6272283196 
-72.16834259 -40.32464218 5.326061726 0.6848201156 
-72.12827301 -49.40174484 4.247491837 0.6742655039 
-82.8846283 -66.21668243 2.222645044 0.6278210878 
-72.54229736 -70.6944046 1.053002477 0.6426172853 
-59.03159714 -71.00276947 0.2076219916 0.669082284 
-31.50713921 -53.73226929 1.559736252 0.7596363425 
-23.86675835 -53.31489563 0.9380261898 0.7755504847 
-15.4290123 -50.11739349 0.7219753265 0.7989630699 
-6.45427084 -43.33406067 1.17436564 0.8328635693 
-3.130356312 -45.23173904 0.1706504375 0.8314949274 
2.099561453 -41.72159195 0.1652958393 0.8485501409 
6.385381699 -38.55017853 0.1609107703 0.8627871275 
9.933811188 -35.66347885 0.1572814286 0.8747550845 
12.89776897 -33.01752472 0.1542499065 0.8848788738 
15.39231491 -30.57614136 0.1517013907 0.8934901953 
17.50517845 -28.30911255 0.1496492475 0.9008508921 
19.30405617 -26.19184113 0.1479497552 0.9071660042 
20.83894348 -24.19328308 0.1503847986 0.9126409888 
22.29263496 -22.67364502 1.699679706e-05 0.9158209562 
23.44462585 -20.85702133 1.6707947e-05 0.919941783 
24.43390083 -19.12549973 1.652687388e-05 0.9234952927 
25.28233528 -17.46725464 1.699523818e-05 0.9265538454 
26.00755501 -15.87197876 1.673231054e-05 0.929176271 
26.62386322 -14.33054924 1.763695764e-05 0.9314107299 
27.14286423 -12.83474445 1.739752406e-05 0.9332965612 
27.57385635 -11.37723541 1.689421151e-05 0.9348654747 
27.92424011 -9.951259613 1.679174238e-05 0.9361433387 
28.2001152 -8.55059433 1.209240236e-05 0.9371498227 
28.40575027 -7.169399261 1.197108486e-05 0.9379011393 
28.5445118 -5.802158356 1.184554367e-05 0.938408494 
28.61858559 -4.443518639 1.170912128e-05 0.9386794567 
28.62913322 -3.088312149 1.241646532e-05 0.9387180209 
28.57631302 -1.731404901 1.171653548e-05 0.9385247827 
28.4593029 -0.3676030636 1.120986781e-05 0.9380968809 
28.27626228 1.00834322 1.202494877e-05 0.9374279976 
28.02430153 2.401873112 1.070834696e-05 0.9365078807 
27.69930077 3.818754673 1.12981279e-05 0.9353225231 
27.29589653 5.265044212 1.084954238e-05 0.9338532686 
26.8071804 6.747282982 1.056367091e-05 0.9320762753 
26.22447014 8.272656441 1.033011813e-05 0.9299619794 
25.53697014 9.849034309 1.148593219e-05 0.9274737835 
24.73141098 11.48517227 1.502180021e-05 0.9245666265 
23.79126358 13.19104862 1.715710823e-05 0.9211853743 
22.69623947 14.97789669 1.594780952e-05 0.9172625542 
21.2987709 16.47003555 0.1524158716 0.9143049121 
19.84029198 18.42178726 0.1524165869 0.9091228843 
18.13481522 20.49286652 0.1539491862 0.9031205177 
16.12060738 22.38275528 0.2525096536 0.8973442316 
13.81626225 24.17354202 0.4078789055 0.8913339376 
10.98268414 27.65864944 0.1607428044 0.8783823252 
7.645629883 30.46011353 0.1639127582 0.8670728207 
3.674084902 33.37823486 0.1999822706 0.8542038202 
-0.2117894143 34.31530762 0.6765683293 0.8472175598 
-4.112994671 34.42613983 1.286490083 0.8418693542 
-8.332224846 34.46326065 1.872309923 0.835226059 
-4.693900585 23.19672394 4.08101368 0.8748090267 
-4.309012413 18.51192474 5.072660923 0.8888501525 
-5.047196388 15.78983021 5.686382294 0.8942433596 
-8.666528702 15.69992352 5.93395853 0.8848992586 
-13.88399029 16.12866592 6.114942074 0.8693733811 
-19.16514969 15.69991207 6.361551762 0.8547235131 
-27.2029438 15.69987392 6.546075344 0.8305909038 
-136.5075378 50.46832275 4.349060059 0.5254240036 
-143.0500031 37.99179459 5.401079655 0.5200940967 
-145.8297729 24.29635239 6.202423096 0.5205218792 
-222.800827 16.89233017 6.075401306 0.3849125504 
-201.3862915 -3.539895535 6.468458652 0.4208129346 
-107.5283508 -14.06814289 7.008340836 0.6114419103 
-150.0650024 -32.10974503 6.155082226 0.5116484761 
-177.381897 -54.09376526 4.836522579 0.4512410164 
-61.75835419 -30.90245438 6.150272369 0.7217746973 
-85.07804108 -49.16475677 4.552033901 0.6439296603 
-111.6427917 -74.85819244 1.926625967 0.5588464141 
-78.55062866 -67.24394989 1.894557238 0.6354754567 
-61.2750473 -65.54876709 1.341307044 0.6742848158 
-53.83797073 -69.91491699 0.05544166639 0.681253314 
-36.41781616 -62.26212692 0.204760775 0.7306941152 
-21.66333961 -53.31489563 0.7041159868 0.779582262 
-8.307808876 -41.50361252 1.87870729 0.8353831172 
-5.472835541 -44.20736694 0.8088245392 0.8316220641 
-1.266545773 -44.02023315 0.16874291 0.8375332952 
3.621559143 -40.62970734 0.1637378931 0.8535789251 
7.641688347 -37.55864334 0.1596254855 0.8670054674 
10.98042488 -34.75664139 0.1562111825 0.8783166409 
13.77660656 -32.1825943 0.1533519179 0.8879032135 
16.13531876 -29.80246353 0.1509503126 0.8960713744 
18.13681602 -27.58781052 0.1490504742 0.9030632377 
19.84315681 -25.51454926 0.1478394866 0.9090724587 
21.29946518 -23.55207443 0.151595667 0.9142965078 
22.6962738 -22.05783463 1.627375241e-05 0.917262733 
23.79127693 -20.27102661 1.671186874e-05 0.9211854339 
24.73142624 -18.5651474 1.684643757e-05 0.9245666265 
25.53698921 -16.92897797 1.671538666e-05 0.9274739027 
26.22447395 -15.35260487 1.674529994e-05 0.9299620986 
26.80718803 -13.82723999 1.715954568e-05 0.9320763946 
27.29541016 -12.34497738 1.717513624e-05 0.9338546991 
27.69925499 -10.89873409 1.740508742e-05 0.9353227019 
28.02428627 -9.481855392 1.511820028e-05 0.9365079403 
28.2762661 -8.088310242 1.266622985e-05 0.9374279976 
28.45930481 -6.71236515 1.163738852e-05 0.9380969405 
28.57631302 -5.348561287 1.171653548e-05 0.9385248423 
28.62913513 -3.991640329 1.213656742e-05 0.9387180209 
28.6185894 -2.636465549 1.2136642e-05 0.9386794567 
28.54450989 -1.277825832 1.166485163e-05 0.938408494 
28.40573883 0.08943200111 1.146207887e-05 0.9379011393 
28.20010567 1.470624447 1.133656679e-05 0.9371498227 
27.92431259 2.871302605 1.185041947e-05 0.9361430407 
27.57385063 4.297291279 1.072585746e-05 0.9348653555 
27.14286995 5.754771233 1.081699884e-05 0.933296442 
26.62386703 7.250576019 1.133632941e-05 0.9314106703 
26.00754547 8.792024612 1.041633459e-05 0.9291762114 
25.28231812 10.38731194 1.265389346e-05 0.9265537262 
24.43390274 12.04555225 1.69543946e-05 0.9234951735 
23.44461441 13.77704716 1.665953096e-05 0.9199417233 
22.29262352 15.59366703 1.581344259e-05 0.9158208966 
20.83741379 17.10795975 0.1524158418 0.9126625061 
19.30133438 19.09777832 0.1528404802 0.9072209597 
17.50356674 21.21371841 0.1545482278 0.9009093642 
15.37945271 22.61370468 0.4078792334 0.8967805505 
-107.5283432 -14.03265381 5.470505238 0.6113954782 
-150.0650024 -32.01222992 4.062065125 0.5116084814 
-177.3818817 -53.91811371 2.354777575 0.4512223303 
-61.75834656 -30.80480957 5.13563776 0.7217844725 
-85.4492569 -49.16475677 3.168518305 0.6429269314 
-99.86038971 -67.97360992 0.8603634238 0.5900375247 
-61.2750473 -55.26882935 1.884968519 0.6911095977 
-60.58955383 -64.72506714 0.207345441 0.6768920422 
-36.6674881 -53.12582016 1.163626552 0.74994874 
-30.91071129 -55.70443344 0.1991399527 0.7560046911 
-20.65358734 -51.66856003 0.1886225194 0.7853600383 
-7.766335487 -40.38217163 1.51082325 0.839315176 
-5.776422977 -44.49971771 0.1733749509 0.8299752474 
-0.3271507621 -41.33543015 0.1677924544 0.8469438553 
4.174817085 -38.41737747 0.163182646 0.8612241149 
7.925919533 -35.71873474 0.1593442112 0.8733062744 
11.07513046 -33.21405792 0.1561221033 0.8835806251 
13.73664761 -30.88020706 0.1534014791 0.8923580647 
15.99895191 -28.69621277 0.1511609256 0.8998883367 
17.93114471 -26.64378357 0.1493216455 0.9063711166 
19.58780098 -24.70698929 0.1477562636 0.9119666815 
21.00879669 -22.86027908 0.1510021985 0.916852355 
22.37330246 -21.45009995 1.631131272e-05 0.9195945859 
23.44956589 -19.74819183 1.687631629e-05 0.9232919216 
24.37638855 -18.11595154 1.726582923e-05 0.9264878035 
25.17261124 -16.54426956 1.698209053e-05 0.9292421937 
25.85363197 -15.02494431 1.700713619e-05 0.9316045642 
26.43195152 -13.5505743 1.663043804e-05 0.9336153865 
26.91784286 -12.11444092 1.722433626e-05 0.9353077412 
27.31929016 -10.71034527 1.682091352e-05 0.9367092252 
27.64314461 -9.332556725 1.37632378e-05 0.9378407598 
27.89445114 -7.975701332 1.220787635e-05 0.9387198091 
28.07712364 -6.634676933 1.158896794e-05 0.9393593073 
28.19394875 -5.304594517 1.219372098e-05 0.9397685528 
28.24669456 -3.980717182 1.181424341e-05 0.9399533868 
28.236166 -2.658386707 1.197729034e-05 0.9399164915 
28.16215897 -1.332995415 1.095630978e-05 0.9396573901 
28.02366066 0.0002384185791 1.082902781e-05 0.9391720891 
27.81848335 1.345989704 1.15690309e-05 0.9384539723 
27.54349518 2.709239483 1.152045297e-05 0.9374923706 
27.19440651 4.095196247 9.982070878e-06 0.9362729192 
26.76557922 5.509304047 1.013506608e-05 0.9347772598 
26.24992561 6.95747757 1.005448121e-05 0.9329819083 
25.63861084 8.446050644 1.030077692e-05 0.9308578968 
24.92076111 9.981981277 1.169139068e-05 0.9283697009 
24.08280182 11.57287598 1.595051435e-05 0.9254742861 
23.10846138 13.22728062 1.680790047e-05 0.922118485 
21.84454918 14.6023035 0.1524169743 0.9197317362 
20.55702209 16.37877655 0.152416572 0.9153273702 
19.06082344 18.24728394 0.1530694067 0.910243988 
17.31869316 20.21972275 0.1547237635 0.9043719172 
15.25082302 19.25972748 1.082949162 0.9090921283 
12.96570587 23.65213394 0.4078786671 0.8929530382 
10.08739281 26.93156815 0.1615942121 0.8803997636 
6.75339365 29.49774933 0.1647609919 0.8695625663 
2.821365118 32.12274551 0.1999810338 0.8573281169 
-1.671927094 34.47201538 0.3328190744 0.8446453214 
-5.58139658 34.36280823 0.9511873126 0.8396167755 
-9.943834305 34.40548325 1.496031523 0.832357645 
-4.24673605 20.97335052 4.128586769 0.8819468021 
-4.310520172 17.19734955 4.98210144 0.8922709823 
-6.278182507 15.76187229 5.409100533 0.8910273314 
-10.20819569 15.71541691 5.609436512 0.8805188537 
-16.7422142 16.7038002 5.661363602 0.8599485755 
-21.69137764 15.69990253 5.905969143 0.8471047878 
-61.1185112 28.46450424 4.638107777 0.7185169458 
-148.0961456 49.22997284 2.395121098 0.5035617948 
-143.0500031 33.08152771 3.692952156 0.522475183 
-141.9863281 18.96004868 4.461408615 0.5301898718 
-60.72195053 0.7772607803 6.481356144 0.7382737994 
-38.43881989 -9.652839661 6.852592468 0.8063816428 
-73.20327759 -21.35139847 5.757288933 0.6976438165 
-107.7910919 -39.45140076 4.106105328 0.5993103981 
-142.4326477 -64.54223633 1.611609578 0.5087310672 
-111.4749756 -65.36290741 1.373666048 0.5690829754 
-61.58827209 -49.39559937 2.816380978 0.6993056536 
-69.24248505 -64.20872498 0.6534191966 0.6594842076 
-55.90287781 -64.30399323 0.05544101447 0.6873841286 
-34.43369293 -53.72447586 0.8920190334 0.7533679605 
-26.3886528 -53.31489563 0.350697577 0.7704814672 
-17.71409607 -50.39088058 0.1856087297 0.7939810157 
-6.293269634 -40.26102829 1.35387516 0.8420963883 
-3.840163708 -43.41591644 0.1713914573 0.8359652758 
1.267936826 -40.33670807 0.1661604792 0.8519762158 
5.500424385 -37.49475479 0.1618267149 0.8654746413 
9.036291122 -34.86347198 0.1582085341 0.8769151568 
12.0116663 -32.41820145 0.1551647335 0.8866593242 
14.53135777 -30.13653946 0.1525893211 0.8949958682 
16.67674255 -27.99824524 0.1505144089 0.9021571875 
18.51163864 -25.98607254 0.148772046 0.9083278775 
20.08569908 -24.08108139 0.1486215442 0.9136720896 
21.43690872 -22.26586914 0.1519619673 0.9183291197 
22.75 -20.8744545 1.724145841e-05 0.9208869338 
18.51519012 -9.812636375 4.794940472 0.9690009952 
24.65550613 -17.58573532 1.700947359e-05 0.9274523258 
25.41174507 -16.03238297 1.638869435e-05 0.9300710559 
26.05727005 -14.52882671 1.715577127e-05 0.9323121309 
26.60373116 -13.06793022 1.7159653e-05 0.9342134595 
27.06062508 -11.64313412 1.723086825e-05 0.9358062148 
27.4355793 -10.24842834 1.696171785e-05 0.9371154904 
27.73480606 -8.878194809 1.272676764e-05 0.9381610155 
27.96280861 -7.527182579 1.178879484e-05 0.9389590621 
28.12327003 -6.190333843 1.164399873e-05 0.9395209551 
28.21858788 -4.862833977 1.203764532e-05 0.9398549199 
28.25020599 -3.539999962 1.197365509e-05 0.9399656653 
28.21858406 -2.217149973 1.231754322e-05 0.9398549199 
28.12327385 -0.8896512985 1.090351179e-05 0.9395209551 
27.96280861 0.4471831322 1.13282058e-05 0.9389590621 
27.73477173 1.798213959 1.073915882e-05 0.9381610751 
27.43562126 3.168454647 1.070713552e-05 0.9371153116 
27.06063652 4.563157082 1.079796584e-05 0.9358060956 
26.60373688 5.987942696 1.036536742e-05 0.9342133999 
26.05727386 7.448856354 1.085514305e-05 0.9323120117 
25.41175461 8.952404976 1.023568893e-05 0.9300709963 
24.65548706 10.5057745 1.131943009e-05 0.9274522662 
23.77408981 12.11685371 1.621229603e-05 0.9244096875 
22.74999428 13.7944479 1.709383469e-05 0.9208869338 
21.43652153 15.18479252 0.1524165571 0.9183336496 
20.08322716 16.99117661 0.1524160653 0.9137119055 
18.5094738 18.89229965 0.1535933614 0.9083815217 
16.6756897 20.90324783 0.1553351581 0.9022141099 
14.54657459 22.19135666 0.4078790545 0.8982315063 
12.10791874 24.40792847 0.4078780711 0.8901019096 
9.039579391 27.76599121 0.1625890285 0.8769794106 
5.505381107 30.39691925 0.1659465283 0.865540266 
1.327201962 33.0978508 0.1999809444 0.8525655866 
-2.902470589 34.35120773 0.5610439777 0.8434533477 
-6.986021042 34.37562561 1.137674451 0.8374013305 
-4.837161064 24.86940765 3.261513233 0.8694546223 
-4.246733189 19.60648727 4.442895412 0.8858123422 
-4.446105003 16.20141983 5.203888416 0.8945763111 
-7.520302296 15.76250744 5.476667404 0.887744844 
-13.72916317 17.14977646 5.494412422 0.8676476479 
-17.13467407 15.69992161 5.825007915 0.8606486917 
-24.36024284 15.69987965 5.937819958 0.8390894532 
-91.47177124 37.71570587 3.679553986 0.6331373453 
-146.667038 43.74089813 2.873242617 0.5096310377 
-143.0500031 28.37582779 3.981599808 0.5245779157 
-172.6548157 17.92556763 3.970786333 0.4696882665 
-60.73264694 -1.382797956 6.507815838 0.7385162115 
-177.3824921 -14.50869083 4.141664982 0.4625807106 
-61.68833923 -14.53142452 6.271338463 0.7334724665 
-61.86935043 -21.35139847 5.905081749 0.7292527556 
-95.99125671 -39.45140076 4.185554981 0.6269587278 
-72.16834259 -40.19054794 4.149912357 0.6848515868 
-72.12827301 -49.22764587 3.027461767 0.6743379831 
-61.13370132 -52.09484863 2.390763998 0.6963573694 
-67.24184418 -66.36107635 0.2009073645 0.6602515578 
-39.57863998 -53.04950333 1.354308367 0.7438239455 
-31.33731079 -53.30121994 0.7582761645 0.7606983781 
-23.81803894 -52.98015976 0.1918655038 0.7761839628 
-14.98021507 -49.14710617 0.1828063279 0.8020837307 
-5.13367033 -40.61835861 1.104517341 0.8428154588 
-2.026921749 -42.36147308 0.1695341915 0.8416139483 
2.766232252 -39.36432648 0.1646258086 0.8567304015 
6.74898243 -36.5955162 0.1605482548 0.8694972396 
10.08638096 -34.01792526 0.1599459201 0.8803763986 
12.89777756 -31.64049149 0.1542593837 0.8895821571 
15.28461075 -29.40877533 0.1518435627 0.8975034952 
17.32014847 -27.31430817 0.1499017924 0.9043160677 
19.06334496 -25.34063339 0.1482512653 0.9101915359 
20.55880928 -23.46515656 0.149897024 0.9153013825 
21.97747993 -22.03460312 1.621560659e-05 0.9182385206 
23.10847855 -20.30724716 1.651028288e-05 0.9221185446 
24.08280945 -18.65287018 1.720000728e-05 0.9254742861 
24.9207077 -17.06194687 1.676261672e-05 0.9283698797 
25.63860893 -15.52601051 1.656833592e-05 0.930858016 
26.24991989 -14.03746319 1.663500552e-05 0.9329819679 
26.76557732 -12.58928108 1.689628334e-05 0.9347773194 
27.19439697 -11.17516804 1.659566442e-05 0.9362729788 
27.54348755 -9.789228439 1.490992145e-05 0.9374923706 
27.81848907 -8.425971031 1.217724366e-05 0.9384539723 
28.02366638 -7.080216408 1.189782961e-05 0.9391720891 
28.16218948 -5.747028351 1.230263751e-05 0.9396572709 
28.23616409 -4.421597481 1.201035866e-05 0.9399164915 
28.24669266 -3.099263906 1.184731173e-05 0.9399533868 
28.19395065 -1.775397658 1.216065266e-05 0.9397685528 
28.07711983 -0.4453084469 1.14082759e-05 0.9393593073 
27.89445686 0.8957252502 1.189491013e-05 0.9387197495 
27.64315987 2.252568245 1.07351525e-05 0.9378407001 
27.31931686 3.63036871 1.083087955e-05 0.936709106 
26.91777802 5.034467697 1.091310332e-05 0.9353078604 
26.43195343 6.470591545 1.079039885e-05 0.9336153269 
25.85363007 7.944968224 1.055888424e-05 0.931604445 
25.17261314 9.464313507 1.071453153e-05 0.9292420745 
24.37632751 11.03595829 1.297764447e-05 0.9264878631 
23.44954681 12.66820812 1.628582504e-05 0.9232919216 
22.37328911 14.37012577 1.629596409e-05 0.9195945263 
21.00770569 15.77681446 0.152416423 0.9168666601 
19.58496475 17.61402893 0.1525721699 0.9120181799 
17.92931938 19.54961395 0.1541438103 0.9064257741 
15.96625614 20.79341125 0.4078796506 0.9029984474 
13.77759075 22.91353989 0.4078789353 0.8956600428 
11.07738495 26.11691666 0.160654068 0.883643806 
7.929782391 28.62110901 0.1636436731 0.8733710647 
4.219574451 31.19317627 0.1955915093 0.8617562652 
-0.2641603351 34.10009766 0.1999808848 0.8475222588 
-4.244050503 34.39868164 0.7506453991 0.8414621353 
-8.477115631 34.45233154 1.308247209 0.8347377777 
-4.779284477 23.15990829 3.66654563 0.8745569587 
-4.309141636 18.39930725 4.719117165 0.8890165091 
-5.111588955 15.7612772 5.338944435 0.8940380812 
-8.847699165 15.76318645 5.541512012 0.8841597438 
-15.54687214 17.17644882 5.551044464 0.8624646664 
-19.297369 15.69991207 5.868099689 0.8542491198 
-27.35931206 15.69987392 5.962589264 0.8300457597 
-102.9487381 38.35563278 3.598585129 0.6059345007 
-143.0500031 37.84761429 3.362209082 0.5200762749 
-145.9107056 24.21541595 4.161171913 0.5203111768 
-222.8007965 16.82350922 3.090797901 0.3848558962 
-107.5283432 -14.03268528 5.470505238 0.6113954782 
-150.0650024 -32.01235199 4.062065125 0.5116084814 
-177.3818817 -53.9182663 2.354777575 0.4512222409 
-61.75835037 -30.80489349 5.135691643 0.7217844129 
-85.4488678 -49.16475677 3.16853404 0.6429278255 
-99.86038971 -67.97360992 0.8603634238 0.5900375247 
-61.2750473 -55.26888275 1.884968519 0.6911094785 
-60.58939743 -64.72503662 0.2073464841 0.6768924594 
-36.66727448 -53.12575531 1.163626671 0.7499493361 
-30.91048241 -55.70434189 0.1991398036 0.7560053468 
-20.65342522 -51.6684761 0.1886225641 0.7853605151 
-7.766335487 -40.38217163 1.51082325 0.839315176 
-5.776401043 -44.49968719 0.1733750552 0.8299753666 
-0.3271003366 -41.33540344 0.1677927673 0.8469439745 
4.17487812 -38.41734695 0.1631830037 0.8612242937 
7.925980091 -35.71867371 0.1593448073 0.8733065724 
11.07517529 -33.21401978 0.1561230272 0.8835807443 
13.73664761 -30.88020706 0.1534014791 0.8923580647 
15.99896049 -28.69618988 0.1511610001 0.8998884559 
17.9311676 -26.64377213 0.1493219584 0.9063711762 
19.58782005 -24.7069664 0.1477566361 0.9119668007 
21.00882721 -22.86024857 0.1510018259 0.9168524146 
22.37331963 -21.4500618 1.69348732e-05 0.9195946455 
23.44956589 -19.74819183 1.687631629e-05 0.9232919216 
24.37639236 -18.11594582 1.698593223e-05 0.9264878035 
25.17261696 -16.54426384 1.688288467e-05 0.9292421937 
25.85364342 -15.02492237 1.702248483e-05 0.9316045642 
26.43196487 -13.55055237 1.707330739e-05 0.9336153865 
26.91779709 -12.11441231 1.706373587e-05 0.93530792 
27.31929016 -10.71034527 1.682091352e-05 0.9367092252 
27.64315605 -9.332550049 1.377858644e-05 0.9378407598 
27.89445496 -7.975688934 1.238856748e-05 0.9387198091 
28.07712555 -6.634659767 1.176965998e-05 0.9393593073 
28.19394875 -5.304571629 1.219372098e-05 0.9397685528 
28.24669456 -3.980689287 1.181424341e-05 0.9399533868 
28.236166 -2.658386707 1.197729034e-05 0.9399164915 
28.16219711 -1.332946539 1.124918435e-05 0.9396572709 
28.02365875 0.000248670578 1.110892572e-05 0.9391720891 
27.81848145 1.346003532 1.184892881e-05 0.9384539723 
27.54349899 2.709265709 1.124055507e-05 0.937492311 
27.19438553 4.095225811 1.031275769e-05 0.9362729192 
26.76557922 5.509304047 1.013506608e-05 0.9347772598 
26.2499218 6.957489014 9.906857485e-06 0.9329819083 
25.63860703 8.446068764 1.012008488e-05 0.9308578968 
24.92070389 9.981996536 1.151544166e-05 0.9283697605 
24.08292007 11.57293224 1.626934318e-05 0.9254739285 
23.1084671 13.22726917 1.695552419e-05 0.922118485 
21.84454918 14.6023035 0.1524169743 0.9197317362 
20.55700874 16.37878799 0.1524164379 0.9153273106 
19.060812 18.24730301 0.1530699432 0.9102439284 
17.31867409 20.21975708 0.154724434 0.904371798 
15.25079536 19.25972748 1.082954168 0.9090921283 
-107.6951218 -14.01139832 3.926346302 0.6108925939 
-143.5654602 -30.7975769 2.205696106 0.5251969099 
-170.378067 -51.91484451 0.168243736 0.4644117951 
-61.75835037 -30.70726776 4.120890141 0.7217573524 
-85.82273102 -49.16475677 1.774851203 0.6418750882 
-61.13445663 -46.08421326 2.186754227 0.7049458027 
-61.1569519 -54.97807693 0.7602020502 0.6916037202 
-51.83856201 -57.40659332 0.05544293672 0.7083343863 
-36.87434006 -53.0910759 0.2611702681 0.7493010163 
-26.48115158 -50.42995453 0.1946197599 0.776966691 
-17.68221855 -47.40621948 0.185593918 0.8016912937 
-7.784491062 -40.17324448 0.9980687499 0.83960706 
-4.474457741 -41.64400864 0.1720528454 0.8402892947 
0.5010278225 -38.96856308 0.1669557095 0.8553067446 
4.669231415 -36.44062424 0.1626872122 0.868094027 
8.183392525 -34.05288315 0.1599455327 0.8790336251 
11.16154289 -31.80703735 0.1560425013 0.8883930445 
13.69991493 -29.68284225 0.1534456909 0.8964580894 
15.87273788 -27.67228317 0.1513558477 0.903421402 
17.73970222 -25.76495361 0.1495736688 0.9094479084 
19.27017212 -23.58184433 0.2898486853 0.9161484838 
20.73568153 -22.21014786 0.1504433304 0.9192486405 
22.06874847 -20.87694931 1.623272146e-05 0.9217873812 
23.12630844 -19.25358009 1.68561055e-05 0.9252778888 
24.03961754 -17.68985176 1.69242976e-05 0.9283030033 
24.82616997 -16.17847824 1.737137063e-05 0.9309162498 
25.50033951 -14.71274662 1.745781628e-05 0.9331619143 
26.07387733 -13.28653431 1.653713662e-05 0.935076654 
26.55640602 -11.89408398 1.750184128e-05 0.9366906285 
26.95573997 -10.53009892 1.655588312e-05 0.9380283356 
27.27817154 -9.189565659 1.36038052e-05 0.9391096234 
27.52852249 -7.867763996 1.193303342e-05 0.9399504662 
27.71063995 -6.560162544 1.118086311e-05 0.940562427 
27.82715607 -5.262394905 1.21246685e-05 0.9409542084 
27.87978172 -3.970209837 1.145943043e-05 0.9411312342 
27.86927414 -2.679417133 1.193307253e-05 0.941095829 
27.79548073 -1.385841131 1.105846331e-05 0.9408476949 
27.65733147 -0.08527231216 1.014451664e-05 0.9403832555 
27.45280838 1.226574421 1.074611828e-05 0.9396961331 
27.17889214 2.554102898 1.070425878e-05 0.9387766719 
26.83146477 3.901924133 1.033921853e-05 0.9376117587 
26.40517426 5.27482605 1.132749094e-05 0.9361843467 
25.89325142 6.677923203 9.578056051e-06 0.9344730973 
25.28734207 8.116661072 1.047913338e-05 0.932451725 
24.57713318 9.596891403 9.881868209e-06 0.930087924 
23.75005913 11.1249361 1.376642376e-05 0.9273428321 
22.79077721 12.7077055 1.626023368e-05 0.9241690636 
21.55334282 14.01184368 0.1524156034 0.9219631553 
19.24097061 11.86890793 1.713265538 0.9336107969 
18.83615875 17.45288849 0.1532831043 0.9130637646 
17.14688492 19.2960968 0.1548882723 0.9075874686 
15.17908764 20.44224167 0.4078789949 0.9042732716 
12.96569824 22.43017578 0.4078796208 0.8971482515 
10.22447205 25.445858 0.161464721 0.8854868412 
7.080602169 27.73865509 0.1644514203 0.875628233 
3.365214825 30.17001343 0.1679809988 0.8641186953 
-0.9947139025 32.61831284 0.1999817938 0.8511216044 
-5.789108753 34.47234726 0.3776742518 0.8386474848 
-10.18478584 34.53520203 0.8928762674 0.8312681317 
-4.246734142 20.83882523 3.755648613 0.8821464777 
-4.24672842 17.02621841 4.650334358 0.8927365541 
-6.375779152 15.76192188 5.045049191 0.8906461 
-12.23390484 17.17438889 4.996465206 0.8716281056 
-16.74219894 16.62277222 5.196565628 0.8599889278 
-22.27503777 15.93150806 5.350906372 0.8448883295 
-60.75675583 28.19589996 3.632085562 0.719638288 
-76.70172119 26.02508163 3.647061348 0.6799114943 
-101.6807938 23.40241241 3.324405193 0.6191740036 
-109.8257446 14.28971577 3.609448195 0.6037008762 
-38.442173 -9.632481575 6.179694653 0.8063184619 
-73.50778961 -21.35140228 4.621489525 0.6967130899 
-108.2239151 -39.45140076 2.490643024 0.5981740952 
-112.1190567 -52.61818695 1.144784689 0.5794094205 
-103.3926544 -61.19495392 0.1616398394 0.5899769068 
-61.13809586 -48.94680786 1.749491096 0.7008372545 
-61.13024139 -58.13837814 0.2064270675 0.6865798831 
-46.99091721 -56.43706894 0.05544425175 0.7207131982 
-33.41133118 -52.44972229 0.2017294616 0.7580311298 
-23.35091591 -49.41733932 0.1914082617 0.7856738567 
-15.11515999 -46.4132843 0.1829610765 0.8090518117 
-6.391756058 -40.18083572 0.8273299336 0.8418771625 
-2.715194225 -40.73580551 0.170251146 0.8455689549 
1.971851826 -38.10956573 0.1654491872 0.8597973585 
5.906638145 -35.63021088 0.1614209861 0.8719268441 
9.230020523 -33.29190826 0.1580186784 0.8823049068 
12.0525589 -31.08560562 0.1551312059 0.8912157416 
14.46158504 -29.00052261 0.1527095884 0.8988928795 
16.52647591 -27.02554703 0.150729984 0.9055271149 
18.30263138 -25.15030289 0.1490395367 0.9112728834 
19.83424377 -23.36298752 0.1481998265 0.9162644744 
21.1544857 -21.64688492 0.1514441073 0.920637846 
22.43852997 -20.32872009 1.693376362e-05 0.9230063558 
18.49818993 -9.829939842 4.686471462 0.9688034058 
24.31512642 -17.18057442 1.678019362e-05 0.9292175174 
25.06275749 -15.68513966 1.730911572e-05 0.9317036867 
25.70218468 -14.23324394 1.723386958e-05 0.9338353276 
26.24441338 -12.81889343 1.674554733e-05 0.9356467128 
26.69840622 -11.43651009 1.657211033e-05 0.9371661544 
27.07148743 -10.08088112 1.65787751e-05 0.9384164214 
27.36948586 -8.747104645 1.215292377e-05 0.9394158125 
27.5966568 -7.430540085 1.177975264e-05 0.940179348 
27.75666046 -6.126689911 1.243110819e-05 0.9407171607 
27.85173988 -4.831244469 1.194026754e-05 0.94103688 
27.88328743 -3.539999962 1.193180833e-05 0.9411429763 
27.85173798 -2.248739243 1.197333586e-05 0.94103688 
27.75665474 -0.953296423 1.13623064e-05 0.9407171607 
27.5966568 0.3505401611 1.039798462e-05 0.940179348 
27.36938858 1.667114735 1.100974987e-05 0.9394160509 
27.07149506 3.000900745 1.042576969e-05 0.9384163618 
26.69843292 4.356526375 1.054900804e-05 0.9371660352 
26.2444191 5.73890686 1.062561114e-05 0.9356466532 
25.70218277 7.153265953 1.032503042e-05 0.933835268 
25.06276131 8.605163574 1.10084884e-05 0.9317036271 
24.3151226 10.10060024 1.153301946e-05 0.9292174578 
23.44584084 11.64609718 1.638984213e-05 0.9263350964 
22.43852425 13.24873447 1.632555177e-05 0.9230062962 
21.15371132 14.56466579 0.1524168104 0.9206472635 
19.83163452 16.2723465 0.1524163932 0.9163075089 
18.30062103 18.05722046 0.153792873 0.9113241434 
16.52553177 19.93137741 0.1554784477 0.9055813551 
14.47907257 21.09265137 0.4078788757 0.9020137787 
12.14750481 23.11815262 0.4078786969 0.894528687 
9.233219147 26.1953125 0.1624060422 0.882366538 
5.911404133 28.53328705 0.1655613631 0.8719898462 
1.978215814 31.01259995 0.169298619 0.8598610759 
-2.64797616 33.51462173 0.1999817938 0.8461074829 
-7.2271595 34.53167343 0.5472413898 0.8362374902 
-4.837160587 24.70106125 2.8508389 0.8697272539 
-4.246732235 19.48386002 4.081207752 0.8859853745 
-4.485331535 16.14588165 4.861245632 0.8944882751 
-7.621016502 15.76255894 5.100966454 0.8873528242 
-13.74793053 17.07717133 5.057035446 0.8676250577 
-17.36827469 15.76357937 5.342751026 0.859741509 
-24.63647461 15.76216984 5.375807762 0.8380661011 
-69.12174225 28.93763733 3.463535309 0.6968742609 
-83.90171051 25.28307724 3.578156948 0.6620303392 
-143.0500031 28.2660675 1.966847181 0.5244916677 
-176.6946411 18.31332779 1.47062242 0.4620015919 
-212.990509 2.93225193 0.6535909772 0.4013977349 
-177.3825073 -14.47164917 1.730489492 0.4624673724 
-61.68833923 -14.49401379 5.302590847 0.7334069014 
-62.13633347 -21.35139847 4.909068108 0.728399694 
-96.3859024 -39.45140076 2.712547302 0.6258748174 
-72.16833496 -40.05647659 2.974055767 0.6848424673 
-72.34101868 -49.16475677 1.792586923 0.6737204194 
-61.13396072 -51.90064621 1.2759372 0.6964348555 
-57.03543854 -58.33102417 0.05543881282 0.6952997446 
-41.36738968 -54.43880844 0.2078417242 0.7368407845 
-28.64870834 -50.18112946 0.4034294486 0.773121655 
-20.42292976 -48.40843582 0.1884029657 0.7939066887 
-9.238776207 -40.18507767 1.159815073 0.8370584249 
-5.893496513 -41.74332047 0.3393791914 0.8379065394 
-1.059070349 -39.84395599 0.1685542911 0.8505692482 
3.359383106 -37.26699829 0.1640284657 0.8640551567 
7.077383995 -34.83153534 0.1612322032 0.8755803704 
10.22179508 -32.54232788 0.1570037007 0.8854256868 
12.89778614 -30.37766647 0.1542670131 0.8939016461 
15.18513489 -28.33047104 0.1520146877 0.9012119174 
17.14820671 -26.38991165 0.1501377225 0.9075342417 
18.83850098 -24.54556656 0.1485319138 0.9130136371 
20.29592323 -22.78186417 0.1494390219 0.9177927375 
21.55346298 -21.09210968 0.1522865742 0.9219619632 
22.79079628 -19.78768539 1.592954868e-05 0.9241690636 
23.75007248 -18.20491409 1.67921371e-05 0.9273428917 
24.57713318 -16.67686844 1.707060619e-05 0.9300880432 
25.28734207 -15.19662666 1.720728142e-05 0.9324517846 
25.89324951 -13.75790882 1.6306205e-05 0.9344731569 
26.40529823 -12.35480404 1.735408296e-05 0.9361840487 
26.83149147 -10.98190403 1.660440648e-05 0.9376116991 
27.17890549 -9.634090424 1.440432152e-05 0.9387766719 
27.45280647 -8.306554794 1.194719425e-05 0.9396961927 
27.6573391 -6.994710922 1.164083915e-05 0.9403832555 
27.79548073 -5.694149971 1.19796423e-05 0.9408476949 
27.86927414 -4.400565624 1.193307253e-05 0.941095829 
27.87977791 -3.109770775 1.173932833e-05 0.9411312342 
27.82715607 -1.817597151 1.166407947e-05 0.9409542084 
27.71063995 -0.5198218822 1.025968413e-05 0.9405623674 
27.52851868 0.7877836227 1.086423163e-05 0.9399504662 
27.27814102 2.109577656 1.066194909e-05 0.9391097426 
26.95574951 3.450118065 9.94228958e-06 0.938028276 
26.55641174 4.814115524 1.13819051e-05 0.9366905093 
26.07387924 6.206544876 9.80898767e-06 0.9350765944 
25.50034714 7.63278389 1.084422183e-05 0.9331617951 
24.82617188 9.098517418 9.722043615e-06 0.9309161305 
24.03961754 10.609869 1.139722463e-05 0.9283029437 
23.12629128 12.17359352 1.715372309e-05 0.9252778888 
22.06873894 13.79698277 1.639806396e-05 0.921787262 
20.73423195 15.12546635 0.1524162292 0.9192680717 
19.34605217 16.85811615 0.1527979523 0.9147233367 
17.73802185 18.67154312 0.15432702 0.9095000625 
15.82476997 19.26639938 0.5825805068 0.9084768891 
13.86693573 19.24363708 1.161694527 0.9091376066 
11.5927496 21.55144119 1.037251711 0.9002828598 
8.186514854 26.95945358 0.163399905 0.8790835738 
4.674520969 29.34363937 0.1667366624 0.8681573868 
0.5621516109 31.73920822 0.1999819726 0.8558704853 
-4.405002594 34.42807007 0.199980557 0.8408110738 
-8.647182465 34.48021698 0.7329761982 0.8340680599 
-4.837156296 23.08551025 3.25688839 0.874450326 
-4.246728897 18.21633148 4.378407478 0.8895044327 
-5.206335068 15.76132488 4.98553896 0.8936667442 
-8.951839447 15.76323795 5.153049469 0.8837561011 
-15.67195606 17.17644882 5.084203243 0.8619918227 
-19.54247284 15.76245594 5.36250782 0.8533117771 
-27.65785599 15.76371288 5.366153717 0.8289584517 
-74.34003448 28.08020401 3.485086918 0.6841948032 
-91.47173309 24.24399567 3.501834154 0.6437039971 
-88.88766479 14.31825161 4.203742504 0.6557871699 
-175.7219086 12.73673344 1.667847276 0.4648317993 
-107.6947861 -14.01139832 3.926416397 0.6108934879 
-143.5654602 -30.79765701 2.205685139 0.5251968503 
-170.3780365 -51.91502762 0.168239519 0.4644117653 
-61.75834274 -30.70734406 4.120888233 0.7217572331 
-85.82221985 -49.16475677 1.774864793 0.6418762803 
-61.13445663 -46.08421326 2.186754227 0.7049458027 
-61.1569519 -54.97813034 0.760174334 0.6916036606 
-51.83839798 -57.40658569 0.05544298887 0.7083348036 
-36.87420273 -53.09103012 0.2611568272 0.749301374 
-26.48091316 -50.42984772 0.1946194768 0.7769674659 
-17.68207741 -47.40620422 0.1855933815 0.8016915917 
-7.784491062 -40.17324448 0.9980687499 0.83960706 
-4.474451065 -41.64400864 0.1720541269 0.8402892947 
0.5010849833 -38.96852875 0.1669552177 0.8553069234 
4.669280529 -36.44059753 0.1626868546 0.8680941463 
8.183642387 -34.05284119 0.1599457264 0.8790339231 
11.16160393 -31.80698395 0.1560420692 0.8883932829 
13.69991493 -29.68284225 0.1534456909 0.8964580894 
15.87275028 -27.67226791 0.1513550133 0.9034214616 
17.73971748 -25.76494598 0.1495735198 0.909447968 
19.2701931 -23.58182144 0.2898491323 0.9161485434 
20.73570442 -22.21011734 0.1504431814 0.9192487001 
22.06877708 -20.87692261 1.62303495e-05 0.9217873812 
23.12630844 -19.25358009 1.68561055e-05 0.9252778888 
24.0396347 -17.68983269 1.712033736e-05 0.9283030629 
24.82617569 -16.17846298 1.751899435e-05 0.9309162498 
25.50035095 -14.71273518 1.701257497e-05 0.9331619143 
26.07388496 -13.28651428 1.73260396e-05 0.935076654 
26.55641937 -11.89405823 1.705659997e-05 0.9366906285 
26.95573997 -10.53009892 1.655588312e-05 0.9380283356 
27.2781353 -9.189556122 1.373845134e-05 0.9391097426 
27.52852058 -7.867752075 1.221293041e-05 0.9399504662 
27.71063423 -6.560145855 1.149382933e-05 0.940562427 
27.82715416 -5.262371063 1.215773773e-05 0.9409542084 
27.87978172 -3.970183134 1.145943043e-05 0.9411312342 
27.86927414 -2.679417133 1.193307253e-05 0.941095829 
27.79548073 -1.385834455 1.105846331e-05 0.9408476353 
27.65732574 -0.08525943756 1.045748286e-05 0.9403832555 
27.45280457 1.226589203 1.056542624e-05 0.9396961331 
27.17889786 2.554126263 1.039129256e-05 0.9387766719 
26.83145523 3.90195322 1.050456194e-05 0.9376116991 
26.40517426 5.27482605 1.132749094e-05 0.9361843467 
25.8932457 6.677931786 9.891022273e-06 0.9344730973 
25.28733063 8.116675377 9.970126484e-06 0.932451725 
24.57712173 9.596908569 1.032710861e-05 0.930087924 
23.75004768 11.12496948 1.417859585e-05 0.9273427725 
22.79078293 12.70769978 1.637478817e-05 0.9241690636 
21.55334282 14.01184368 0.1524156034 0.9219631553 
19.24096489 11.86890125 1.713270664 0.9336107969 
